841
19757.6107   .1823E+08   3942.0000  0.0  0.0   .5486E-07
19757.1812   .1823E+08   3945.0000  0.0  0.0   .5487E-07
19756.7907   .7811E+07   6866.0000  0.0  0.0   .1280E-06
19756.6345   .8331E+08   3410.0000  0.0  0.0   .1200E-07
19756.5174   .7811E+07   6868.0000  0.0  0.0   .1280E-06
19756.5174   .8071E+08   3412.0000  0.0  0.0   .1239E-07
19756.4003   .1822E+08   3948.0000  0.0  0.0   .5487E-07
19756.2832   .7810E+07   6869.0000  0.0  0.0   .1280E-06
19756.0489   .7810E+08   3414.0000  0.0  0.0   .1280E-07
19755.8928   .1246E+07   4804.0000  0.0  0.0   .8025E-06
19755.5804   .1168E+07   4840.0000  0.0  0.0   .8560E-06
19754.9949   .1484E+09   7797.0000  0.0  0.0   .6740E-08
19754.9558   .1510E+09   7795.0000  0.0  0.0   .6623E-08
19754.7997   .1458E+09   7798.0000  0.0  0.0   .6860E-08
19753.1994   .1121E+07   4816.0000  0.0  0.0   .8924E-06
19752.7310   .2446E+09   3047.0000  0.0  0.0   .4088E-08
19752.6920   .2394E+09   3048.0000  0.0  0.0   .4177E-08
19752.5359   .7807E+07   6754.0000  0.0  0.0   .1281E-06
19752.2627   .2342E+09   3050.0000  0.0  0.0   .4270E-08
19752.2237   .7807E+07   6756.0000  0.0  0.0   .1281E-06
19752.1066   .9803E+06   4790.0000  0.0  0.0   .1020E-05
19751.9505   .7807E+07   6757.0000  0.0  0.0   .1281E-06
19750.8969   .9339E+06   4825.0000  0.0  0.0   .1071E-05
19749.6874   .1821E+08   3875.0000  0.0  0.0   .5491E-07
19749.2582   .1821E+08   3879.0000  0.0  0.0   .5491E-07
19748.9851   .8755E+06   4804.0000  0.0  0.0   .1142E-05
19748.5560   .1561E+08   3882.0000  0.0  0.0   .6407E-07
19748.3219   .7002E+06   4779.0000  0.0  0.0   .1428E-05
19747.5417   .7804E+07   6645.0000  0.0  0.0   .1281E-06
19747.2687   .7803E+07   6647.0000  0.0  0.0   .1282E-06
19747.1127   .5202E+07   6648.0000  0.0  0.0   .1922E-06
19746.3326   .8063E+08   3305.0000  0.0  0.0   .1240E-07
19746.1376   .7000E+06   4814.0000  0.0  0.0   .1429E-05
19746.1376   .7802E+08   3307.0000  0.0  0.0   .1282E-07
19745.7866   .7802E+08   3309.0000  0.0  0.0   .1282E-07
19745.2016   .3875E+09   8131.0000  0.0  0.0   .2581E-08
19745.2016   .3797E+09   8132.0000  0.0  0.0   .2634E-08
19745.0066   .6224E+06   4795.0000  0.0  0.0   .1607E-05
19745.0066   .3891E+06   4771.0000  0.0  0.0   .2570E-05
19745.0066   .3771E+09   8133.0000  0.0  0.0   .2652E-08
19744.5387   .7801E+07   6539.0000  0.0  0.0   .1282E-06
19744.2267   .5201E+07   6541.0000  0.0  0.0   .1923E-06
19743.9538   .5200E+07   6542.0000  0.0  0.0   .1923E-06
19742.5501   .1456E+09   7603.0000  0.0  0.0   .6869E-08
19742.5501   .1482E+09   7602.0000  0.0  0.0   .6748E-08
19742.0433   .1430E+09   7604.0000  0.0  0.0   .6994E-08
19741.7704   .4666E+06   4807.0000  0.0  0.0   .2143E-05
19741.6924   .1820E+08   3812.0000  0.0  0.0   .5495E-07
19741.3416   .3499E+06   4789.0000  0.0  0.0   .2858E-05
19741.1857   .1560E+08   3815.0000  0.0  0.0   .6412E-07
19740.8348   .5199E+07   6436.0000  0.0  0.0   .1924E-06
19740.5620   .5199E+07   6438.0000  0.0  0.0   .1924E-06
19740.3671   .1560E+08   3818.0000  0.0  0.0   .6412E-07
19740.2891   .5199E+07   6439.0000  0.0  0.0   .1924E-06
19739.6265   .2391E+09   2909.0000  0.0  0.0   .4182E-08
19739.5096   .2313E+09   2910.0000  0.0  0.0   .4323E-08
19739.0809   .2287E+09   2912.0000  0.0  0.0   .4372E-08
19737.4052   .5197E+07   6336.0000  0.0  0.0   .1924E-06
19737.0545   .5197E+07   6338.0000  0.0  0.0   .1924E-06
19736.7817   .5197E+07   6340.0000  0.0  0.0   .1924E-06
19734.7558   .7793E+08   3203.0000  0.0  0.0   .1283E-07
19734.5999   .7534E+08   3205.0000  0.0  0.0   .1327E-07
19734.2104   .1559E+08   3751.0000  0.0  0.0   .6416E-07
19734.1325   .7533E+08   3207.0000  0.0  0.0   .1327E-07
19734.1325   .5195E+07   6239.0000  0.0  0.0   .1925E-06
19733.7819   .5195E+07   6241.0000  0.0  0.0   .1925E-06
19733.7040   .1559E+08   3755.0000  0.0  0.0   .6416E-07
19733.5092   .5195E+07   6243.0000  0.0  0.0   .1925E-06
19732.9250   .1558E+08   3758.0000  0.0  0.0   .6417E-07
19732.5355   .3740E+09   7911.0000  0.0  0.0   .2674E-08
19732.4187   .3818E+09   7910.0000  0.0  0.0   .2619E-08
19732.3018   .1428E+09   7413.0000  0.0  0.0   .7001E-08
19732.1460   .1454E+09   7412.0000  0.0  0.0   .6876E-08
19732.0681   .3714E+09   7912.0000  0.0  0.0   .2693E-08
19731.9124   .1402E+09   7414.0000  0.0  0.0   .7131E-08
19731.0945   .5194E+07   6145.0000  0.0  0.0   .1925E-06
19730.7441   .5193E+07   6147.0000  0.0  0.0   .1925E-06
19730.4325   .5193E+07   6149.0000  0.0  0.0   .1926E-06
19728.8362   .3494E+06   4795.0000  0.0  0.0   .2862E-05
19728.2133   .5192E+07   6054.0000  0.0  0.0   .1926E-06
19728.0186   .3884E+06   4779.0000  0.0  0.0   .2574E-05
19727.9018   .5192E+07   6057.0000  0.0  0.0   .1926E-06
19727.5904   .5192E+07   6059.0000  0.0  0.0   .1926E-06
19726.8508   .1557E+08   3698.0000  0.0  0.0   .6421E-07
19726.6562   .1557E+08   3694.0000  0.0  0.0   .6421E-07
19726.3448   .4658E+06   4814.0000  0.0  0.0   .2147E-05
19726.1112   .6212E+06   4804.0000  0.0  0.0   .1610E-05
19725.7220   .6986E+06   4790.0000  0.0  0.0   .1432E-05
19725.6442   .2336E+09   2774.0000  0.0  0.0   .4281E-08
19725.6053   .5191E+07   5967.0000  0.0  0.0   .1926E-06
19725.6053   .2258E+09   2776.0000  0.0  0.0   .4429E-08
19725.2550   .5191E+07   5969.0000  0.0  0.0   .1927E-06
19725.2161   .1298E+08   3701.0000  0.0  0.0   .7706E-07
19725.1771   .2232E+09   2777.0000  0.0  0.0   .4480E-08
19724.9047   .5190E+07   5971.0000  0.0  0.0   .1927E-06
19723.5427   .8732E+06   4816.0000  0.0  0.0   .1145E-05
19723.5427   .6984E+06   4825.0000  0.0  0.0   .1432E-05
19723.3481   .9775E+06   4804.0000  0.0  0.0   .1023E-05
19723.1536   .5189E+07   5882.0000  0.0  0.0   .1927E-06
19722.8812   .7525E+08   3104.0000  0.0  0.0   .1329E-07
19722.8423   .7525E+08   3106.0000  0.0  0.0   .1329E-07
19722.8034   .5189E+07   5885.0000  0.0  0.0   .1927E-06
19722.4921   .5189E+07   5887.0000  0.0  0.0   .1927E-06
19722.2198   .7265E+08   3108.0000  0.0  0.0   .1377E-07
19721.3639   .1401E+09   7226.0000  0.0  0.0   .7138E-08
19721.3249   .1242E+07   4821.0000  0.0  0.0   .8054E-06
19721.3249   .1427E+09   7225.0000  0.0  0.0   .7008E-08
19721.2082   .1117E+07   4832.0000  0.0  0.0   .8953E-06
19720.9748   .5188E+07   5801.0000  0.0  0.0   .1927E-06
19720.8581   .9311E+06   4840.0000  0.0  0.0   .1074E-05
19720.8192   .1375E+09   7227.0000  0.0  0.0   .7273E-08
19720.5858   .5188E+07   5803.0000  0.0  0.0   .1927E-06
19720.2357   .5188E+07   5806.0000  0.0  0.0   .1928E-06
19719.5744   .1556E+08   3640.0000  0.0  0.0   .6426E-07
19719.2633   .1496E+07   4841.0000  0.0  0.0   .6685E-06
19719.0688   .1358E+07   4850.0000  0.0  0.0   .7364E-06
19718.9910   .1297E+08   3644.0000  0.0  0.0   .7711E-07
19718.9521   .5187E+07   5722.0000  0.0  0.0   .1928E-06
19718.7188   .1164E+07   4857.0000  0.0  0.0   .8592E-06
19718.5632   .5187E+07   5725.0000  0.0  0.0   .1928E-06
19718.3687   .3890E+08   6620.0000  0.0  0.0   .2571E-07
19718.3298   .3761E+09   7691.0000  0.0  0.0   .2659E-08
19718.3298   .3683E+09   7692.0000  0.0  0.0   .2715E-08
19718.2909   .4150E+08   6619.0000  0.0  0.0   .2410E-07
19718.2521   .5187E+07   5727.0000  0.0  0.0   .1928E-06
19718.1743   .1297E+08   3648.0000  0.0  0.0   .7712E-07
19718.1354   .3657E+09   7693.0000  0.0  0.0   .2735E-08
19718.0187   .3890E+08   6621.0000  0.0  0.0   .2571E-07
19717.5520   .1745E+07   4864.0000  0.0  0.0   .5730E-06
19717.1632   .1595E+07   4872.0000  0.0  0.0   .6269E-06
19717.1632   .5186E+07   5647.0000  0.0  0.0   .1928E-06
19716.7743   .5186E+07   5650.0000  0.0  0.0   .1928E-06
19716.6965   .1396E+07   4879.0000  0.0  0.0   .7165E-06
19716.3855   .2593E+07   5652.0000  0.0  0.0   .3857E-06
19715.9189   .1990E+07   4890.0000  0.0  0.0   .5026E-06
19715.5689   .5186E+07   5575.0000  0.0  0.0   .1928E-06
19715.4912   .1831E+07   4897.0000  0.0  0.0   .5461E-06
19715.1801   .2593E+07   5578.0000  0.0  0.0   .3857E-06
19715.0635   .1628E+07   4903.0000  0.0  0.0   .6141E-06
19714.8302   .2593E+07   5580.0000  0.0  0.0   .3857E-06
19714.5581   .2232E+07   4918.0000  0.0  0.0   .4480E-06
19714.2471   .2592E+07   5506.0000  0.0  0.0   .3857E-06
19714.0527   .2069E+07   4925.0000  0.0  0.0   .4834E-06
19713.8194   .2592E+07   5509.0000  0.0  0.0   .3858E-06
19713.7806   .7258E+08   3008.0000  0.0  0.0   .1378E-07
19713.5862   .7258E+08   3010.0000  0.0  0.0   .1378E-07
19713.5473   .1861E+07   4931.0000  0.0  0.0   .5374E-06
19713.4307   .2592E+07   5512.0000  0.0  0.0   .3858E-06
19713.3141   .2475E+07   4950.0000  0.0  0.0   .4040E-06
19713.1197   .6999E+08   3012.0000  0.0  0.0   .1429E-07
19713.0420   .2592E+07   5440.0000  0.0  0.0   .3858E-06
19713.0031   .2281E+09   2643.0000  0.0  0.0   .4384E-08
19712.8476   .2203E+09   2645.0000  0.0  0.0   .4539E-08
19712.8476   .2305E+07   4957.0000  0.0  0.0   .4339E-06
19712.6533   .2592E+07   5443.0000  0.0  0.0   .3858E-06
19712.5367   .1296E+08   3589.0000  0.0  0.0   .7716E-07
19712.3812   .2177E+09   2646.0000  0.0  0.0   .4593E-08
19712.3812   .2092E+07   4962.0000  0.0  0.0   .4779E-06
19712.3812   .2592E+07   4985.0000  0.0  0.0   .3858E-06
19712.2646   .2592E+07   5446.0000  0.0  0.0   .3858E-06
19712.1480   .2592E+07   5377.0000  0.0  0.0   .3858E-06
19711.9925   .1374E+09   7041.0000  0.0  0.0   .7280E-08
19711.9148   .1400E+09   7040.0000  0.0  0.0   .7145E-08
19711.8759   .2539E+07   4991.0000  0.0  0.0   .3939E-06
19711.8371   .1296E+08   3593.0000  0.0  0.0   .7717E-07
19711.6816   .2592E+07   5380.0000  0.0  0.0   .3858E-06
19711.6039   .1348E+09   7043.0000  0.0  0.0   .7420E-08
19711.5650   .2592E+07   5024.0000  0.0  0.0   .3858E-06
19711.4096   .2592E+07   5317.0000  0.0  0.0   .3859E-06
19711.3318   .2326E+07   4996.0000  0.0  0.0   .4300E-06
19711.2930   .2592E+07   5383.0000  0.0  0.0   .3859E-06
19711.0598   .2592E+07   5029.0000  0.0  0.0   .3859E-06
19711.0598   .2592E+07   5065.0000  0.0  0.0   .3859E-06
19711.0209   .3887E+08   6476.0000  0.0  0.0   .2572E-07
19711.0209   .3887E+08   6475.0000  0.0  0.0   .2572E-07
19710.9821   .2592E+07   5321.0000  0.0  0.0   .3859E-06
19710.9432   .2592E+07   5260.0000  0.0  0.0   .3859E-06
19710.9043   .1296E+08   3597.0000  0.0  0.0   .7717E-07
19710.6712   .2591E+07   5109.0000  0.0  0.0   .3859E-06
19710.6323   .2556E+07   5033.0000  0.0  0.0   .3913E-06
19710.5934   .2591E+07   5207.0000  0.0  0.0   .3859E-06
19710.5934   .3887E+08   6478.0000  0.0  0.0   .2573E-07
19710.5934   .2591E+07   5324.0000  0.0  0.0   .3859E-06
19710.5546   .2591E+07   5156.0000  0.0  0.0   .3859E-06
19710.5157   .2591E+07   5070.0000  0.0  0.0   .3859E-06
19710.4380   .2591E+07   5264.0000  0.0  0.0   .3859E-06
19710.1660   .2591E+07   5114.0000  0.0  0.0   .3859E-06
19710.1271   .2591E+07   5211.0000  0.0  0.0   .3859E-06
19710.0494   .2591E+07   5161.0000  0.0  0.0   .3859E-06
19710.0105   .2591E+07   5074.0000  0.0  0.0   .3859E-06
19710.0105   .2591E+07   5268.0000  0.0  0.0   .3859E-06
19709.7385   .2591E+07   5117.0000  0.0  0.0   .3859E-06
19709.7385   .2591E+07   5214.0000  0.0  0.0   .3859E-06
19709.5831   .2591E+07   5164.0000  0.0  0.0   .3859E-06
19706.0866   .3626E+09   7476.0000  0.0  0.0   .2758E-08
19705.9701   .3704E+09   7475.0000  0.0  0.0   .2700E-08
19705.8924   .1295E+08   3541.0000  0.0  0.0   .7721E-07
19705.6205   .3600E+09   7477.0000  0.0  0.0   .2778E-08
19705.1544   .1295E+08   3546.0000  0.0  0.0   .7722E-07
19704.7660   .3885E+08   6336.0000  0.0  0.0   .2574E-07
19704.7272   .3885E+08   6334.0000  0.0  0.0   .2574E-07
19704.4165   .3626E+08   6337.0000  0.0  0.0   .2758E-07
19704.2611   .1036E+08   3550.0000  0.0  0.0   .9653E-07
19703.9116   .7251E+08   2916.0000  0.0  0.0   .1379E-07
19703.7563   .6992E+08   2918.0000  0.0  0.0   .1430E-07
19703.1349   .6733E+08   2920.0000  0.0  0.0   .1485E-07
19701.0383   .1346E+09   6860.0000  0.0  0.0   .7428E-08
19700.9606   .1372E+09   6859.0000  0.0  0.0   .7288E-08
19700.4559   .1346E+09   6861.0000  0.0  0.0   .7429E-08
19699.5243   .2200E+09   2515.0000  0.0  0.0   .4545E-08
19699.4466   .2148E+09   2516.0000  0.0  0.0   .4654E-08
19699.3302   .1294E+08   3496.0000  0.0  0.0   .7727E-07
19698.9808   .2122E+09   2518.0000  0.0  0.0   .4711E-08
19698.4762   .1035E+08   3501.0000  0.0  0.0   .9659E-07
19697.8941   .3623E+08   6198.0000  0.0  0.0   .2760E-07
19697.8941   .3882E+08   6196.0000  0.0  0.0   .2576E-07
19697.4671   .1035E+08   3505.0000  0.0  0.0   .9660E-07
19697.4283   .3623E+08   6199.0000  0.0  0.0   .2760E-07
19693.7422   .6985E+08   2826.0000  0.0  0.0   .1432E-07
19693.5094   .6726E+08   2828.0000  0.0  0.0   .1487E-07
19693.0051   .6467E+08   2831.0000  0.0  0.0   .1546E-07
19692.3844   .1035E+08   3455.0000  0.0  0.0   .9665E-07
19692.3844   .3647E+09   7263.0000  0.0  0.0   .2742E-08
19692.3844   .3570E+09   7264.0000  0.0  0.0   .2801E-08
19692.1905   .1035E+08   3460.0000  0.0  0.0   .9665E-07
19692.1517   .3544E+09   7265.0000  0.0  0.0   .2822E-08
19692.0353   .1319E+09   6682.0000  0.0  0.0   .7581E-08
19692.0353   .3621E+08   6063.0000  0.0  0.0   .2762E-07
19691.9966   .3621E+08   6061.0000  0.0  0.0   .2762E-07
19691.9578   .1345E+09   6680.0000  0.0  0.0   .7435E-08
19691.6863   .3621E+08   6064.0000  0.0  0.0   .2762E-07
19691.6087   .1319E+09   6683.0000  0.0  0.0   .7581E-08
19691.2596   .1035E+08   3464.0000  0.0  0.0   .9666E-07
19687.2656   .2146E+09   2390.0000  0.0  0.0   .4660E-08
19687.1105   .2094E+09   2391.0000  0.0  0.0   .4775E-08
19687.0717   .1034E+08   3416.0000  0.0  0.0   .9670E-07
19686.6453   .2042E+09   2393.0000  0.0  0.0   .4897E-08
19685.9863   .1034E+08   3422.0000  0.0  0.0   .9671E-07
19685.6762   .3619E+08   5931.0000  0.0  0.0   .2763E-07
19685.6374   .3619E+08   5930.0000  0.0  0.0   .2763E-07
19685.1723   .3360E+08   5933.0000  0.0  0.0   .2976E-07
19684.8622   .7754E+07   3427.0000  0.0  0.0   .1290E-06
19684.2808   .6720E+08   2740.0000  0.0  0.0   .1488E-07
19684.0483   .6461E+08   2742.0000  0.0  0.0   .1548E-07
19683.4669   .6202E+08   2744.0000  0.0  0.0   .1612E-07
19681.5682   .1318E+09   6506.0000  0.0  0.0   .7589E-08
19681.5294   .1344E+09   6505.0000  0.0  0.0   .7443E-08
19681.2969   .1033E+08   3381.0000  0.0  0.0   .9676E-07
19681.0257   .1292E+09   6507.0000  0.0  0.0   .7741E-08
19680.5608   .3514E+09   7054.0000  0.0  0.0   .2846E-08
19680.4833   .7751E+07   3387.0000  0.0  0.0   .1290E-06
19680.4446   .3591E+09   7053.0000  0.0  0.0   .2785E-08
19680.1734   .3617E+08   5801.0000  0.0  0.0   .2765E-07
19680.1346   .3358E+08   5803.0000  0.0  0.0   .2978E-07
19680.0572   .3488E+09   7055.0000  0.0  0.0   .2867E-08
19679.7860   .3358E+08   5804.0000  0.0  0.0   .2978E-07
19679.0499   .7749E+07   3392.0000  0.0  0.0   .1290E-06
19675.7579   .7747E+07   3349.0000  0.0  0.0   .1291E-06
19675.2545   .7746E+07   3356.0000  0.0  0.0   .1291E-06
19674.5962   .6455E+08   2656.0000  0.0  0.0   .1549E-07
19674.2865   .6197E+08   2659.0000  0.0  0.0   .1614E-07
19674.2865   .2091E+09   2267.0000  0.0  0.0   .4782E-08
19674.2865   .3356E+08   5677.0000  0.0  0.0   .2979E-07
19674.2478   .3356E+08   5675.0000  0.0  0.0   .2979E-07
19674.2090   .2040E+09   2269.0000  0.0  0.0   .4903E-08
19673.7832   .5938E+08   2661.0000  0.0  0.0   .1684E-07
19673.7444   .3356E+08   5679.0000  0.0  0.0   .2979E-07
19673.7057   .1988E+09   2271.0000  0.0  0.0   .5030E-08
19673.1250   .7745E+07   3361.0000  0.0  0.0   .1291E-06
19672.9701   .1291E+09   6334.0000  0.0  0.0   .7747E-08
19672.8540   .1317E+09   6332.0000  0.0  0.0   .7595E-08
19672.5056   .1265E+09   6335.0000  0.0  0.0   .7906E-08
19670.4154   .7743E+07   3320.0000  0.0  0.0   .1292E-06
19670.2993   .7743E+07   3327.0000  0.0  0.0   .1292E-06
19669.1770   .3355E+08   5553.0000  0.0  0.0   .2981E-07
19669.0996   .3355E+08   5555.0000  0.0  0.0   .2981E-07
19668.7900   .3097E+08   5556.0000  0.0  0.0   .3229E-07
19667.7066   .5160E+07   3333.0000  0.0  0.0   .1938E-06
19667.3197   .3457E+09   6847.0000  0.0  0.0   .2892E-08
19667.3197   .3535E+09   6846.0000  0.0  0.0   .2829E-08
19667.1262   .3431E+09   6848.0000  0.0  0.0   .2914E-08
19665.5788   .6191E+08   2576.0000  0.0  0.0   .1615E-07
19665.4240   .5159E+07   3293.0000  0.0  0.0   .1938E-06
19665.2693   .5933E+08   2579.0000  0.0  0.0   .1686E-07
19664.6504   .5675E+08   2581.0000  0.0  0.0   .1762E-07
19663.7608   .3095E+08   5435.0000  0.0  0.0   .3231E-07
19663.7608   .3353E+08   5433.0000  0.0  0.0   .2983E-07
19663.6061   .5158E+07   3302.0000  0.0  0.0   .1939E-06
19663.1807   .3095E+08   5437.0000  0.0  0.0   .3231E-07
19663.0260   .1264E+09   6164.0000  0.0  0.0   .7913E-08
19662.9486   .1289E+09   6163.0000  0.0  0.0   .7755E-08
19662.4846   .2037E+09   2149.0000  0.0  0.0   .4909E-08
19662.4846   .1238E+09   6165.0000  0.0  0.0   .8079E-08
19662.2912   .1986E+09   2150.0000  0.0  0.0   .5036E-08
19662.1752   .5157E+07   3308.0000  0.0  0.0   .1939E-06
19661.8272   .1934E+09   2152.0000  0.0  0.0   .5171E-08
19660.5512   .5157E+07   3270.0000  0.0  0.0   .1939E-06
19659.0820   .3093E+08   5317.0000  0.0  0.0   .3233E-07
19658.9661   .3093E+08   5319.0000  0.0  0.0   .3233E-07
19658.6182   .3093E+08   5320.0000  0.0  0.0   .3233E-07
19658.5022   .5156E+07   3280.0000  0.0  0.0   .1940E-06
19657.0720   .5155E+07   3287.0000  0.0  0.0   .1940E-06
19656.3763   .5928E+08   2499.0000  0.0  0.0   .1687E-07
19656.1058   .5154E+07   3250.0000  0.0  0.0   .1940E-06
19656.0285   .5670E+08   2502.0000  0.0  0.0   .1764E-07
19655.9126   .3402E+09   6643.0000  0.0  0.0   .2940E-08
19655.8353   .3479E+09   6642.0000  0.0  0.0   .2874E-08
19655.4488   .5412E+08   2505.0000  0.0  0.0   .1848E-07
19655.4102   .3376E+09   6644.0000  0.0  0.0   .2962E-08
19654.7919   .1237E+09   5998.0000  0.0  0.0   .8085E-08
19654.7146   .1263E+09   5996.0000  0.0  0.0   .7920E-08
19654.2896   .1211E+09   5999.0000  0.0  0.0   .8257E-08
19654.0964   .2834E+08   5205.0000  0.0  0.0   .3528E-07
19654.0964   .3092E+08   5204.0000  0.0  0.0   .3234E-07
19653.6714   .5153E+07   3261.0000  0.0  0.0   .1941E-06
19653.5168   .2834E+08   5207.0000  0.0  0.0   .3528E-07
19651.9329   .2576E+07   3269.0000  0.0  0.0   .3882E-06
19651.7011   .2576E+07   3233.0000  0.0  0.0   .3882E-06
19650.0016   .1983E+09   2033.0000  0.0  0.0   .5042E-08
19649.8857   .1932E+09   2035.0000  0.0  0.0   .5177E-08
19649.8857   .2833E+08   5093.0000  0.0  0.0   .3530E-07
19649.6926   .2833E+08   5095.0000  0.0  0.0   .3530E-07
19649.3836   .1880E+09   2036.0000  0.0  0.0   .5319E-08
19649.3836   .2833E+08   5097.0000  0.0  0.0   .3530E-07
19649.0360   .2575E+07   3245.0000  0.0  0.0   .3883E-06
19647.8775   .2575E+07   3219.0000  0.0  0.0   .3884E-06
19647.7617   .5665E+08   2426.0000  0.0  0.0   .1765E-07
19647.3756   .5407E+08   2429.0000  0.0  0.0   .1849E-07
19647.1825   .2575E+07   3254.0000  0.0  0.0   .3884E-06
19646.7578   .5149E+08   2431.0000  0.0  0.0   .1942E-07
19645.3679   .1210E+09   5834.0000  0.0  0.0   .8265E-08
19645.3679   .2832E+08   4986.0000  0.0  0.0   .3531E-07
19645.3293   .2832E+08   4988.0000  0.0  0.0   .3531E-07
19645.3293   .1236E+09   5833.0000  0.0  0.0   .8093E-08
19644.8275   .1184E+09   5835.0000  0.0  0.0   .8445E-08
19644.7503   .2832E+08   4990.0000  0.0  0.0   .3532E-07
19644.6731   .2574E+07   3233.0000  0.0  0.0   .3885E-06
19643.9397   .2574E+07   3208.0000  0.0  0.0   .3885E-06
19643.1677   .3346E+09   6442.0000  0.0  0.0   .2989E-08
19643.1677   .3423E+09   6441.0000  0.0  0.0   .2921E-08
19642.9748   .3320E+09   6443.0000  0.0  0.0   .3012E-08
19642.3573   .2574E+07   3243.0000  0.0  0.0   .3886E-06
19641.5469   .2831E+08   4882.0000  0.0  0.0   .3533E-07
19641.3153   .2573E+08   4884.0000  0.0  0.0   .3886E-07
19640.9680   .2573E+08   4886.0000  0.0  0.0   .3886E-07
19640.6593   .1484E+07   3200.0000  0.0  0.0   .6738E-06
19640.5822   .2374E+07   3224.0000  0.0  0.0   .4213E-06
19639.0775   .5403E+08   2355.0000  0.0  0.0   .1851E-07
19638.6531   .5145E+08   2358.0000  0.0  0.0   .1944E-07
19638.6145   .1929E+09   1920.0000  0.0  0.0   .5183E-08
19638.3830   .1878E+09   1922.0000  0.0  0.0   .5325E-08
19638.0359   .4888E+08   2361.0000  0.0  0.0   .2046E-07
19637.9201   .1780E+07   3236.0000  0.0  0.0   .5619E-06
19637.8816   .1826E+09   1924.0000  0.0  0.0   .5475E-08
19637.5344   .1183E+09   5673.0000  0.0  0.0   .8451E-08
19637.4958   .2572E+08   4781.0000  0.0  0.0   .3888E-07
19637.4572   .2572E+08   4783.0000  0.0  0.0   .3888E-07
19637.4187   .1209E+09   5672.0000  0.0  0.0   .8272E-08
19636.9944   .1157E+09   5675.0000  0.0  0.0   .8640E-08
19636.8401   .2572E+08   4785.0000  0.0  0.0   .3888E-07
19636.7244   .1334E+07   3217.0000  0.0  0.0   .7494E-06
19634.1019   .2571E+08   4683.0000  0.0  0.0   .3889E-07
19633.8320   .2571E+08   4685.0000  0.0  0.0   .3889E-07
19633.4850   .2314E+08   4687.0000  0.0  0.0   .4321E-07
19632.2127   .3291E+09   6243.0000  0.0  0.0   .3039E-08
19632.1356   .3368E+09   6242.0000  0.0  0.0   .2969E-08
19631.7115   .3265E+09   6244.0000  0.0  0.0   .3063E-08
19630.9020   .5141E+08   2288.0000  0.0  0.0   .1945E-07
19630.5165   .2570E+08   4588.0000  0.0  0.0   .3890E-07
19630.4394   .2313E+08   4591.0000  0.0  0.0   .4323E-07
19630.4009   .4884E+08   2291.0000  0.0  0.0   .2048E-07
19629.8227   .2313E+08   4593.0000  0.0  0.0   .4323E-07
19629.7842   .4626E+08   2294.0000  0.0  0.0   .2161E-07
19628.6279   .1156E+09   5516.0000  0.0  0.0   .8647E-08
19628.5509   .1182E+09   5515.0000  0.0  0.0   .8459E-08
19628.0499   .1131E+09   5517.0000  0.0  0.0   .8844E-08
19627.5489   .2313E+08   4497.0000  0.0  0.0   .4324E-07
19627.2407   .2313E+08   4499.0000  0.0  0.0   .4324E-07
19626.8939   .2313E+08   4501.0000  0.0  0.0   .4324E-07
19626.6241   .1876E+09   1811.0000  0.0  0.0   .5331E-08
19626.4700   .1824E+09   1813.0000  0.0  0.0   .5482E-08
19625.9306   .1773E+09   1815.0000  0.0  0.0   .5641E-08
19624.4281   .2312E+08   4408.0000  0.0  0.0   .4325E-07
19624.3126   .2312E+08   4410.0000  0.0  0.0   .4325E-07
19624.2355   .1333E+07   3224.0000  0.0  0.0   .7504E-06
19623.7348   .1482E+07   3208.0000  0.0  0.0   .6750E-06
19623.6962   .2055E+08   4413.0000  0.0  0.0   .4866E-07
19622.6948   .4880E+08   2224.0000  0.0  0.0   .2049E-07
19622.1941   .1777E+07   3243.0000  0.0  0.0   .5628E-06
19622.1941   .4623E+08   2227.0000  0.0  0.0   .2163E-07
19621.9245   .2311E+08   4323.0000  0.0  0.0   .4326E-07
19621.5394   .2054E+08   4325.0000  0.0  0.0   .4867E-07
19621.5394   .4366E+08   2230.0000  0.0  0.0   .2291E-07
19621.5009   .2369E+07   3233.0000  0.0  0.0   .4221E-06
19621.1928   .2054E+08   4327.0000  0.0  0.0   .4868E-07
19621.1543   .1130E+09   5361.0000  0.0  0.0   .8850E-08
19621.1158   .2568E+07   3219.0000  0.0  0.0   .3894E-06
19621.0773   .1156E+09   5360.0000  0.0  0.0   .8654E-08
19620.6537   .1104E+09   5363.0000  0.0  0.0   .9057E-08
19619.9606   .3235E+09   6048.0000  0.0  0.0   .3091E-08
19619.9606   .3312E+09   6047.0000  0.0  0.0   .3019E-08
19619.7681   .3210E+09   6049.0000  0.0  0.0   .3116E-08
19619.2290   .2054E+08   4240.0000  0.0  0.0   .4869E-07
19619.1135   .2567E+07   3254.0000  0.0  0.0   .3895E-06
19619.1135   .2054E+08   4243.0000  0.0  0.0   .4869E-07
19619.0750   .2567E+07   3233.0000  0.0  0.0   .3895E-06
19618.9595   .2567E+07   3245.0000  0.0  0.0   .3895E-06
19618.4975   .2054E+08   4245.0000  0.0  0.0   .4869E-07
19617.1502   .2054E+08   4161.0000  0.0  0.0   .4870E-07
19616.7652   .2567E+07   3250.0000  0.0  0.0   .3896E-06
19616.7268   .2053E+08   4164.0000  0.0  0.0   .4870E-07
19616.6883   .2567E+07   3269.0000  0.0  0.0   .3896E-06
19616.6498   .2567E+07   3261.0000  0.0  0.0   .3896E-06
19616.3803   .1797E+08   4166.0000  0.0  0.0   .5566E-07
19615.6490   .1822E+09   1704.0000  0.0  0.0   .5488E-08
19615.3796   .1771E+09   1707.0000  0.0  0.0   .5647E-08
19615.0333   .5133E+07   3270.0000  0.0  0.0   .1948E-06
19614.9563   .4619E+08   2163.0000  0.0  0.0   .2165E-07
19614.9178   .2053E+08   4085.0000  0.0  0.0   .4871E-07
19614.9178   .1719E+09   1708.0000  0.0  0.0   .5816E-08
19614.7639   .1796E+08   4088.0000  0.0  0.0   .5567E-07
19614.5330   .5132E+07   3280.0000  0.0  0.0   .1948E-06
19614.3790   .4363E+08   2166.0000  0.0  0.0   .2292E-07
19614.3405   .2566E+07   3287.0000  0.0  0.0   .3897E-06
19614.1866   .1796E+08   4090.0000  0.0  0.0   .5567E-07
19613.7248   .4106E+08   2169.0000  0.0  0.0   .2436E-07
19613.3401   .1796E+08   4012.0000  0.0  0.0   .5567E-07
19613.0707   .5132E+07   3293.0000  0.0  0.0   .1949E-06
19612.8398   .1796E+08   4015.0000  0.0  0.0   .5568E-07
19612.8014   .1103E+09   5210.0000  0.0  0.0   .9064E-08
19612.7244   .5132E+07   3302.0000  0.0  0.0   .1949E-06
19612.7244   .1129E+09   5209.0000  0.0  0.0   .8858E-08
19612.4936   .5131E+07   3308.0000  0.0  0.0   .1949E-06
19612.4936   .1796E+08   4018.0000  0.0  0.0   .5568E-07
19612.2242   .1078E+09   5211.0000  0.0  0.0   .9280E-08
19611.7626   .5131E+07   3320.0000  0.0  0.0   .1949E-06
19611.5317   .1796E+08   3942.0000  0.0  0.0   .5568E-07
19611.3394   .1796E+08   3945.0000  0.0  0.0   .5569E-07
19611.0701   .5131E+07   3327.0000  0.0  0.0   .1949E-06
19610.7623   .1539E+08   3948.0000  0.0  0.0   .6497E-07
19610.7239   .5130E+07   3333.0000  0.0  0.0   .1949E-06
19610.3777   .1796E+08   3875.0000  0.0  0.0   .5569E-07
19610.1853   .7695E+07   3349.0000  0.0  0.0   .1299E-06
19610.0315   .7695E+07   3387.0000  0.0  0.0   .1300E-06
19609.8391   .1539E+08   3879.0000  0.0  0.0   .6498E-07
19609.7622   .7695E+07   3356.0000  0.0  0.0   .1300E-06
19609.6083   .1539E+08   3815.0000  0.0  0.0   .6498E-07
19609.4930   .1539E+08   3882.0000  0.0  0.0   .6498E-07
19609.4160   .3180E+09   5856.0000  0.0  0.0   .3144E-08
19609.4160   .5130E+07   3361.0000  0.0  0.0   .1949E-06
19609.3391   .3257E+09   5855.0000  0.0  0.0   .3070E-08
19609.3006   .7695E+07   3381.0000  0.0  0.0   .1300E-06
19609.0699   .1539E+08   3812.0000  0.0  0.0   .6498E-07
19608.9545   .3155E+09   5857.0000  0.0  0.0   .3170E-08
19608.6468   .7694E+07   3422.0000  0.0  0.0   .1300E-06
19608.3391   .1539E+08   3751.0000  0.0  0.0   .6499E-07
19608.2237   .1539E+08   3818.0000  0.0  0.0   .6499E-07
19608.1853   .7694E+07   3392.0000  0.0  0.0   .1300E-06
19608.1853   .1026E+08   3416.0000  0.0  0.0   .9748E-07
19607.7623   .1539E+08   3755.0000  0.0  0.0   .6499E-07
19607.6853   .1026E+08   3455.0000  0.0  0.0   .9749E-07
19607.4931   .1539E+08   3694.0000  0.0  0.0   .6499E-07
19607.3777   .1282E+08   3758.0000  0.0  0.0   .7799E-07
19607.3777   .1026E+08   3460.0000  0.0  0.0   .9749E-07
19607.3008   .7693E+07   3427.0000  0.0  0.0   .1300E-06
19607.2623   .4359E+08   2105.0000  0.0  0.0   .2294E-07
19607.2239   .1282E+08   3640.0000  0.0  0.0   .7799E-07
19607.1854   .1282E+08   3698.0000  0.0  0.0   .7799E-07
19607.0316   .1026E+08   3496.0000  0.0  0.0   .9749E-07
19606.8009   .1282E+08   3589.0000  0.0  0.0   .7800E-07
19606.6471   .1026E+08   3501.0000  0.0  0.0   .9750E-07
19606.6471   .1282E+08   3701.0000  0.0  0.0   .7800E-07
19606.6471   .4103E+08   2108.0000  0.0  0.0   .2437E-07
19606.6086   .1282E+08   3644.0000  0.0  0.0   .7800E-07
19606.6086   .7693E+07   3464.0000  0.0  0.0   .1300E-06
19606.4548   .1282E+08   3593.0000  0.0  0.0   .7800E-07
19606.3395   .1026E+08   3546.0000  0.0  0.0   .9750E-07
19606.2626   .1282E+08   3541.0000  0.0  0.0   .7800E-07
19606.2241   .1282E+08   3648.0000  0.0  0.0   .7800E-07
19606.1472   .1026E+08   3505.0000  0.0  0.0   .9750E-07
19605.9550   .1026E+08   3550.0000  0.0  0.0   .9750E-07
19605.9550   .1026E+08   3597.0000  0.0  0.0   .9750E-07
19605.9550   .4102E+08   2112.0000  0.0  0.0   .2438E-07
19605.7243   .1077E+09   5062.0000  0.0  0.0   .9286E-08
19605.6474   .1102E+09   5060.0000  0.0  0.0   .9070E-08
19605.1860   .1077E+09   5063.0000  0.0  0.0   .9287E-08
19604.1480   .1769E+09   1601.0000  0.0  0.0   .5653E-08
19603.9942   .1718E+09   1603.0000  0.0  0.0   .5822E-08
19603.4561   .1666E+09   1605.0000  0.0  0.0   .6002E-08
19599.9587   .4100E+08   2050.0000  0.0  0.0   .2439E-07
19599.2286   .3843E+08   2054.0000  0.0  0.0   .2602E-07
19598.5370   .3843E+08   2057.0000  0.0  0.0   .2602E-07
19597.8455   .1050E+09   4916.0000  0.0  0.0   .9520E-08
19597.8070   .1076E+09   4915.0000  0.0  0.0   .9294E-08
19597.6918   .3125E+09   5667.0000  0.0  0.0   .3200E-08
19597.6918   .3202E+09   5666.0000  0.0  0.0   .3123E-08
19597.4997   .3100E+09   5668.0000  0.0  0.0   .3226E-08
19597.3076   .1050E+09   4918.0000  0.0  0.0   .9521E-08
19593.6204   .1716E+09   1501.0000  0.0  0.0   .5828E-08
19593.3132   .1664E+09   1504.0000  0.0  0.0   .6008E-08
19592.8524   .1613E+09   1505.0000  0.0  0.0   .6199E-08
19592.7372   .3841E+08   1998.0000  0.0  0.0   .2604E-07
19592.0077   .3584E+08   2003.0000  0.0  0.0   .2790E-07
19591.2398   .3584E+08   2006.0000  0.0  0.0   .2790E-07
19591.2014   .1050E+09   4774.0000  0.0  0.0   .9527E-08
19591.1246   .1050E+09   4773.0000  0.0  0.0   .9527E-08
19590.6256   .1024E+09   4775.0000  0.0  0.0   .9766E-08
19587.5549   .3071E+09   5480.0000  0.0  0.0   .3256E-08
19587.5165   .3148E+09   5479.0000  0.0  0.0   .3177E-08
19587.0944   .3045E+09   5481.0000  0.0  0.0   .3284E-08
19585.9048   .3582E+08   1950.0000  0.0  0.0   .2792E-07
19585.0223   .3582E+08   1955.0000  0.0  0.0   .2792E-07
19584.2934   .3326E+08   1958.0000  0.0  0.0   .3007E-07
19583.8330   .1023E+09   4635.0000  0.0  0.0   .9772E-08
19583.7946   .1049E+09   4633.0000  0.0  0.0   .9534E-08
19583.2959   .9977E+08   4636.0000  0.0  0.0   .1002E-07
19582.6438   .1663E+09   1405.0000  0.0  0.0   .6015E-08
19582.4520   .1611E+09   1407.0000  0.0  0.0   .6206E-08
19581.8767   .1560E+09   1409.0000  0.0  0.0   .6409E-08
19579.1922   .3324E+08   1905.0000  0.0  0.0   .3008E-07
19578.2720   .3324E+08   1910.0000  0.0  0.0   .3009E-07
19577.5818   .9971E+08   4499.0000  0.0  0.0   .1003E-07
19577.5435   .1023E+09   4497.0000  0.0  0.0   .9779E-08
19577.4285   .3068E+08   1914.0000  0.0  0.0   .3260E-07
19577.0068   .9714E+08   4500.0000  0.0  0.0   .1029E-07
19576.3551   .3016E+09   5297.0000  0.0  0.0   .3315E-08
19576.3551   .3093E+09   5296.0000  0.0  0.0   .3233E-08
19576.1634   .2965E+09   5298.0000  0.0  0.0   .3372E-08
19572.8290   .3066E+08   1863.0000  0.0  0.0   .3261E-07
19572.5608   .1584E+09   1311.0000  0.0  0.0   .6312E-08
19572.2159   .1533E+09   1313.0000  0.0  0.0   .6523E-08
19571.7178   .3066E+08   1868.0000  0.0  0.0   .3262E-07
19571.7178   .1507E+09   1315.0000  0.0  0.0   .6634E-08
19570.9132   .2810E+08   1872.0000  0.0  0.0   .3558E-07
19570.7217   .9708E+08   4365.0000  0.0  0.0   .1030E-07
19570.7217   .9964E+08   4364.0000  0.0  0.0   .1004E-07
19570.1853   .9452E+08   4367.0000  0.0  0.0   .1058E-07
19566.6615   .2962E+09   5117.0000  0.0  0.0   .3376E-08
19566.6232   .3039E+09   5115.0000  0.0  0.0   .3291E-08
19566.6232   .2809E+08   1824.0000  0.0  0.0   .3560E-07
19566.2020   .2937E+09   5118.0000  0.0  0.0   .3405E-08
19565.4744   .2809E+08   1830.0000  0.0  0.0   .3560E-07
19564.8618   .9447E+08   4235.0000  0.0  0.0   .1059E-07
19564.8618   .9702E+08   4234.0000  0.0  0.0   .1031E-07
19564.5172   .2553E+08   1834.0000  0.0  0.0   .3917E-07
19564.3257   .9191E+08   4237.0000  0.0  0.0   .1088E-07
19562.0671   .1532E+09   1220.0000  0.0  0.0   .6529E-08
19561.8757   .1480E+09   1223.0000  0.0  0.0   .6755E-08
19561.2250   .1455E+09   1225.0000  0.0  0.0   .6874E-08
19560.7275   .2807E+08   1788.0000  0.0  0.0   .3562E-07
19559.3498   .2552E+08   1794.0000  0.0  0.0   .3919E-07
19558.5462   .9441E+08   4107.0000  0.0  0.0   .1059E-07
19558.5462   .9186E+08   4109.0000  0.0  0.0   .1089E-07
19558.4314   .2296E+08   1799.0000  0.0  0.0   .4355E-07
19558.0105   .8930E+08   4110.0000  0.0  0.0   .1120E-07
19555.9446   .2908E+09   4939.0000  0.0  0.0   .3439E-08
19555.9446   .2959E+09   4938.0000  0.0  0.0   .3379E-08
19555.7916   .2857E+09   4940.0000  0.0  0.0   .3500E-08
19555.0266   .2551E+08   1756.0000  0.0  0.0   .3920E-07
19553.5732   .2295E+08   1762.0000  0.0  0.0   .4357E-07
19553.5732   .8926E+08   3985.0000  0.0  0.0   .1120E-07
19553.5349   .9181E+08   3983.0000  0.0  0.0   .1089E-07
19553.3055   .8671E+08   3986.0000  0.0  0.0   .1153E-07
19552.4641   .2040E+08   1768.0000  0.0  0.0   .4902E-07
19552.3877   .1479E+09   1133.0000  0.0  0.0   .6761E-08
19552.0435   .1428E+09   1136.0000  0.0  0.0   .7003E-08
19551.5082   .1377E+09   1138.0000  0.0  0.0   .7263E-08
19549.6348   .2294E+08   1726.0000  0.0  0.0   .4359E-07
19547.9146   .2039E+08   1734.0000  0.0  0.0   .4904E-07
19547.3031   .8920E+08   3862.0000  0.0  0.0   .1121E-07
19547.3031   .8666E+08   3864.0000  0.0  0.0   .1154E-07
19546.8062   .1784E+08   1739.0000  0.0  0.0   .5605E-07
19546.7680   .8410E+08   3866.0000  0.0  0.0   .1189E-07
19546.6916   .2854E+09   4765.0000  0.0  0.0   .3503E-08
19546.6916   .2905E+09   4764.0000  0.0  0.0   .3442E-08
19546.2330   .2803E+09   4766.0000  0.0  0.0   .3567E-08
19544.4370   .2038E+08   1700.0000  0.0  0.0   .4906E-07
19542.5650   .1783E+08   1708.0000  0.0  0.0   .5608E-07
19542.4122   .1427E+09   1049.0000  0.0  0.0   .7010E-08
19542.2976   .8661E+08   3745.0000  0.0  0.0   .1155E-07
19542.2594   .8406E+08   3746.0000  0.0  0.0   .1190E-07
19542.1830   .1376E+09   1052.0000  0.0  0.0   .7270E-08
19541.7628   .8151E+08   3748.0000  0.0  0.0   .1227E-07
19541.5336   .1325E+09   1054.0000  0.0  0.0   .7550E-08
19541.2662   .1528E+08   1715.0000  0.0  0.0   .6543E-07
19539.5475   .1783E+08   1676.0000  0.0  0.0   .5610E-07
19537.3710   .1528E+08   1686.0000  0.0  0.0   .6546E-07
19537.0274   .8402E+08   3630.0000  0.0  0.0   .1190E-07
19536.9510   .8147E+08   3632.0000  0.0  0.0   .1227E-07
19536.4928   .2800E+09   4594.0000  0.0  0.0   .3571E-08
19536.4928   .2851E+09   4592.0000  0.0  0.0   .3507E-08
19536.4547   .7892E+08   3634.0000  0.0  0.0   .1267E-07
19536.3020   .2749E+09   4595.0000  0.0  0.0   .3637E-08
19535.9966   .1273E+08   1693.0000  0.0  0.0   .7856E-07
19534.9277   .1527E+08   1656.0000  0.0  0.0   .6548E-07
19533.2101   .1374E+09    968.0000  0.0  0.0   .7276E-08
19532.8285   .8144E+08   3519.0000  0.0  0.0   .1228E-07
19532.7903   .1323E+09    971.0000  0.0  0.0   .7557E-08
19532.6377   .7889E+08   3520.0000  0.0  0.0   .1268E-07
19532.4469   .1272E+08   1667.0000  0.0  0.0   .7859E-07
19532.4087   .7634E+08   3522.0000  0.0  0.0   .1310E-07
19532.2561   .1272E+09    973.0000  0.0  0.0   .7859E-08
19530.8060   .1018E+08   1675.0000  0.0  0.0   .9826E-07
19530.5771   .1272E+08   1639.0000  0.0  0.0   .7861E-07
19527.7922   .1017E+08   1651.0000  0.0  0.0   .9829E-07
19527.6778   .2798E+09   4424.0000  0.0  0.0   .3574E-08
19527.6778   .2747E+09   4425.0000  0.0  0.0   .3640E-08
19527.6397   .7885E+08   3410.0000  0.0  0.0   .1268E-07
19527.5634   .7631E+08   3412.0000  0.0  0.0   .1311E-07
19527.2201   .2696E+09   4426.0000  0.0  0.0   .3709E-08
19527.0675   .7630E+08   3414.0000  0.0  0.0   .1311E-07
19526.4954   .7630E+07   1625.0000  0.0  0.0   .1311E-06
19525.8852   .7629E+07   1660.0000  0.0  0.0   .1311E-06
19523.7117   .1322E+09    891.0000  0.0  0.0   .7564E-08
19523.4830   .1271E+09    893.0000  0.0  0.0   .7866E-08
19523.2923   .7627E+07   1638.0000  0.0  0.0   .1311E-06
19522.7586   .1220E+09    896.0000  0.0  0.0   .8195E-08
19522.6823   .5085E+07   1614.0000  0.0  0.0   .1967E-06
19521.9199   .7626E+08   3305.0000  0.0  0.0   .1311E-07
19521.8436   .7372E+08   3307.0000  0.0  0.0   .1356E-07
19521.3862   .7372E+08   3309.0000  0.0  0.0   .1357E-07
19521.0431   .5084E+07   1649.0000  0.0  0.0   .1967E-06
19519.2518   .5083E+07   1629.0000  0.0  0.0   .1967E-06
19519.2137   .7370E+08   3203.0000  0.0  0.0   .1357E-07
19519.0994   .2541E+07   1605.0000  0.0  0.0   .3935E-06
19519.0612   .7370E+08   3205.0000  0.0  0.0   .1357E-07
19518.6421   .7115E+08   3207.0000  0.0  0.0   .1405E-07
19517.9942   .2694E+09   4260.0000  0.0  0.0   .3713E-08
19517.9942   .2744E+09   4259.0000  0.0  0.0   .3644E-08
19517.8037   .2643E+09   4261.0000  0.0  0.0   .3784E-08
19516.4701   .2541E+07   1641.0000  0.0  0.0   .3936E-06
19515.4796   .7367E+08   3104.0000  0.0  0.0   .1357E-07
19515.3272   .7113E+08   3106.0000  0.0  0.0   .1406E-07
19515.2129   .2540E+07   1623.0000  0.0  0.0   .3937E-06
19514.9463   .1270E+09    816.0000  0.0  0.0   .7873E-08
19514.9082   .6859E+08   3108.0000  0.0  0.0   .1458E-07
19514.4892   .1219E+09    819.0000  0.0  0.0   .8202E-08
19513.9559   .1168E+09    822.0000  0.0  0.0   .8559E-08
19511.7089   .7110E+08   3008.0000  0.0  0.0   .1406E-07
19511.5185   .6856E+08   3010.0000  0.0  0.0   .1459E-07
19511.0996   .6602E+08   3012.0000  0.0  0.0   .1515E-07
19509.6527   .2691E+09   4096.0000  0.0  0.0   .3716E-08
19509.6147   .2640E+09   4098.0000  0.0  0.0   .3787E-08
19509.1578   .2590E+09   4099.0000  0.0  0.0   .3862E-08
19508.4345   .6854E+08   2916.0000  0.0  0.0   .1459E-07
19508.2061   .6600E+08   2918.0000  0.0  0.0   .1515E-07
19507.8254   .6346E+08   2920.0000  0.0  0.0   .1576E-07
19505.9984   .1218E+09    745.0000  0.0  0.0   .8209E-08
19505.6940   .1167E+09    748.0000  0.0  0.0   .8566E-08
19505.1612   .6598E+08   2826.0000  0.0  0.0   .1516E-07
19504.9329   .1117E+09    751.0000  0.0  0.0   .8956E-08
19504.9329   .6344E+08   2828.0000  0.0  0.0   .1576E-07
19504.5523   .6090E+08   2831.0000  0.0  0.0   .1642E-07
19502.3075   .6342E+08   2740.0000  0.0  0.0   .1577E-07
19502.1553   .2537E+07   1629.0000  0.0  0.0   .3942E-06
19502.0411   .6089E+08   2742.0000  0.0  0.0   .1642E-07
19501.6988   .5835E+08   2744.0000  0.0  0.0   .1714E-07
19501.6227   .2537E+07   1614.0000  0.0  0.0   .3942E-06
19500.6337   .2537E+07   1649.0000  0.0  0.0   .3942E-06
19500.4435   .2587E+09   3939.0000  0.0  0.0   .3865E-08
19500.4435   .2638E+09   3937.0000  0.0  0.0   .3791E-08
19500.2533   .2536E+09   3940.0000  0.0  0.0   .3943E-08
19499.5306   .6087E+08   2656.0000  0.0  0.0   .1643E-07
19499.4546   .5072E+07   1638.0000  0.0  0.0   .1971E-06
19499.3024   .5072E+07   1625.0000  0.0  0.0   .1971E-06
19499.2644   .5833E+08   2659.0000  0.0  0.0   .1714E-07
19498.9221   .5579E+08   2661.0000  0.0  0.0   .1792E-07
19497.6672   .1166E+09    677.0000  0.0  0.0   .8573E-08
19497.5911   .5071E+07   1660.0000  0.0  0.0   .1972E-06
19497.1348   .1116E+09    680.0000  0.0  0.0   .8963E-08
19497.1348   .5832E+08   2576.0000  0.0  0.0   .1715E-07
19497.0208   .7607E+07   1639.0000  0.0  0.0   .1315E-06
19496.9067   .7607E+07   1651.0000  0.0  0.0   .1315E-06
19496.8306   .5578E+08   2579.0000  0.0  0.0   .1793E-07
19496.5645   .1065E+09    683.0000  0.0  0.0   .9391E-08
19496.5265   .5324E+08   2581.0000  0.0  0.0   .1878E-07
19495.0817   .7605E+07   1675.0000  0.0  0.0   .1315E-06
19495.0437   .2586E+09   3781.0000  0.0  0.0   .3867E-08
19494.9677   .1268E+08   1656.0000  0.0  0.0   .7889E-07
19494.8537   .5577E+08   2499.0000  0.0  0.0   .1793E-07
19494.6636   .1014E+08   1667.0000  0.0  0.0   .9862E-07
19494.5495   .5323E+08   2502.0000  0.0  0.0   .1879E-07
19494.2454   .2535E+09   3782.0000  0.0  0.0   .3945E-08
19494.2074   .5070E+08   2505.0000  0.0  0.0   .1972E-07
19493.6753   .2484E+09   3784.0000  0.0  0.0   .4026E-08
19493.0291   .1521E+08   1676.0000  0.0  0.0   .6576E-07
19492.9151   .5322E+08   2426.0000  0.0  0.0   .1879E-07
19492.8011   .1014E+08   1693.0000  0.0  0.0   .9864E-07
19492.5730   .5069E+08   2429.0000  0.0  0.0   .1973E-07
19492.5350   .1267E+08   1686.0000  0.0  0.0   .7891E-07
19492.2690   .4815E+08   2431.0000  0.0  0.0   .2077E-07
19491.3569   .1774E+08   1700.0000  0.0  0.0   .5637E-07
19491.1289   .5068E+08   2355.0000  0.0  0.0   .1973E-07
19490.9389   .1267E+08   1715.0000  0.0  0.0   .7893E-07
19490.7869   .1520E+08   1708.0000  0.0  0.0   .6577E-07
19490.7489   .4815E+08   2358.0000  0.0  0.0   .2077E-07
19490.4449   .4561E+08   2361.0000  0.0  0.0   .2193E-07
19490.1409   .2584E+09   3781.0000  0.0  0.0   .3869E-08
19489.7990   .2027E+08   1726.0000  0.0  0.0   .4933E-07
19489.6470   .4814E+08   2288.0000  0.0  0.0   .2077E-07
19489.6470   .2534E+09   3782.0000  0.0  0.0   .3947E-08
19489.2291   .1520E+08   1739.0000  0.0  0.0   .6578E-07
19489.2291   .4560E+08   2291.0000  0.0  0.0   .2193E-07
19489.1911   .1115E+09    612.0000  0.0  0.0   .8971E-08
19489.1911   .2483E+09   3784.0000  0.0  0.0   .4028E-08
19489.1531   .1773E+08   1734.0000  0.0  0.0   .5639E-07
19488.9631   .4307E+08   2294.0000  0.0  0.0   .2322E-07
19488.8111   .1064E+09    615.0000  0.0  0.0   .9398E-08
19488.5452   .2280E+08   1756.0000  0.0  0.0   .4386E-07
19488.3553   .4560E+08   2224.0000  0.0  0.0   .2193E-07
19488.0513   .1013E+09    618.0000  0.0  0.0   .9869E-08
19487.8994   .1773E+08   1768.0000  0.0  0.0   .5639E-07
19487.8994   .4306E+08   2227.0000  0.0  0.0   .2322E-07
19487.8994   .2027E+08   1762.0000  0.0  0.0   .4934E-07
19487.6335   .4053E+08   2230.0000  0.0  0.0   .2467E-07
19487.4815   .2533E+08   1788.0000  0.0  0.0   .3948E-07
19487.3296   .4306E+08   2163.0000  0.0  0.0   .2322E-07
19486.8358   .4053E+08   2166.0000  0.0  0.0   .2467E-07
19486.7978   .2280E+08   1794.0000  0.0  0.0   .4387E-07
19486.7598   .2026E+08   1799.0000  0.0  0.0   .4935E-07
19486.6459   .2786E+08   1824.0000  0.0  0.0   .3589E-07
19486.6079   .4053E+08   2169.0000  0.0  0.0   .2468E-07
19486.5319   .4053E+08   2105.0000  0.0  0.0   .2468E-07
19486.0382   .2786E+08   1863.0000  0.0  0.0   .3589E-07
19486.0002   .3799E+08   2108.0000  0.0  0.0   .2632E-07
19486.0002   .2533E+08   1830.0000  0.0  0.0   .3948E-07
19485.9622   .3799E+08   2050.0000  0.0  0.0   .2632E-07
19485.9242   .2279E+08   1834.0000  0.0  0.0   .4387E-07
19485.7723   .3799E+08   2112.0000  0.0  0.0   .2632E-07
19485.6584   .3039E+08   1905.0000  0.0  0.0   .3290E-07
19485.6204   .3546E+08   1998.0000  0.0  0.0   .2820E-07
19485.5064   .3292E+08   1950.0000  0.0  0.0   .3037E-07
19485.3925   .3799E+08   2054.0000  0.0  0.0   .2632E-07
19485.3545   .2786E+08   1868.0000  0.0  0.0   .3590E-07
19485.2786   .2533E+08   1872.0000  0.0  0.0   .3949E-07
19485.2026   .3546E+08   2057.0000  0.0  0.0   .2820E-07
19485.0507   .3545E+08   2003.0000  0.0  0.0   .2821E-07
19485.0507   .3039E+08   1910.0000  0.0  0.0   .3291E-07
19484.9368   .2786E+08   1914.0000  0.0  0.0   .3590E-07
19484.8988   .3292E+08   1955.0000  0.0  0.0   .3038E-07
19484.8608   .3292E+08   2006.0000  0.0  0.0   .3038E-07
19484.7469   .3039E+08   1958.0000  0.0  0.0   .3291E-07
19483.8735   .2482E+09   3629.0000  0.0  0.0   .4030E-08
19483.8735   .2532E+09   3628.0000  0.0  0.0   .3949E-08
19483.6457   .2431E+09   3631.0000  0.0  0.0   .4114E-08
19481.3297   .1038E+09    550.0000  0.0  0.0   .9635E-08
19480.7603   .1013E+09    554.0000  0.0  0.0   .9876E-08
19480.1150   .9619E+08    557.0000  0.0  0.0   .1040E-07
19476.3958   .2480E+09   3478.0000  0.0  0.0   .4033E-08
19476.3579   .2429E+09   3479.0000  0.0  0.0   .4117E-08
19475.9026   .2378E+09   3481.0000  0.0  0.0   .4205E-08
19473.3609   .9865E+08    492.0000  0.0  0.0   .1014E-07
19472.9057   .9358E+08    495.0000  0.0  0.0   .1069E-07
19472.1092   .8852E+08    499.0000  0.0  0.0   .1130E-07
19468.2415   .2427E+09   3331.0000  0.0  0.0   .4120E-08
19468.2415   .2376E+09   3333.0000  0.0  0.0   .4208E-08
19467.9761   .2326E+09   3334.0000  0.0  0.0   .4300E-08
19465.9292   .9352E+08    436.0000  0.0  0.0   .1069E-07
19465.3228   .8846E+08    440.0000  0.0  0.0   .1130E-07
19464.6406   .8340E+08    444.0000  0.0  0.0   .1199E-07
19461.2304   .2375E+09   3187.0000  0.0  0.0   .4211E-08
19461.1925   .2324E+09   3189.0000  0.0  0.0   .4303E-08
19460.7379   .2274E+09   3190.0000  0.0  0.0   .4398E-08
19458.5031   .8840E+08    384.0000  0.0  0.0   .1131E-07
19457.9351   .8334E+08    389.0000  0.0  0.0   .1200E-07
19457.1019   .7828E+08    392.0000  0.0  0.0   .1277E-07
19453.5808   .2322E+09   3047.0000  0.0  0.0   .4306E-08
19453.5808   .2272E+09   3048.0000  0.0  0.0   .4402E-08
19453.2780   .2221E+09   3050.0000  0.0  0.0   .4502E-08
19451.5748   .8328E+08    335.0000  0.0  0.0   .1201E-07
19450.8179   .7823E+08    340.0000  0.0  0.0   .1278E-07
19450.0610   .7318E+08    344.0000  0.0  0.0   .1367E-07
19447.0343   .2270E+09   2909.0000  0.0  0.0   .4405E-08
19446.9586   .2220E+09   2910.0000  0.0  0.0   .4505E-08
19446.5047   .2169E+09   2912.0000  0.0  0.0   .4610E-08
19444.6513   .7818E+08    290.0000  0.0  0.0   .1279E-07
19443.9328   .7313E+08    295.0000  0.0  0.0   .1367E-07
19443.0252   .6808E+08    299.0000  0.0  0.0   .1469E-07
19439.8873   .2218E+09   2774.0000  0.0  0.0   .4508E-08
19439.8873   .2168E+09   2776.0000  0.0  0.0   .4613E-08
19439.5471   .2117E+09   2777.0000  0.0  0.0   .4723E-08
19438.1864   .7309E+08    247.0000  0.0  0.0   .1368E-07
19437.2415   .6804E+08    253.0000  0.0  0.0   .1470E-07
19436.4480   .6300E+08    257.0000  0.0  0.0   .1587E-07
19433.7654   .2166E+09   2643.0000  0.0  0.0   .4616E-08
19433.6899   .2091E+09   2645.0000  0.0  0.0   .4783E-08
19433.2366   .2066E+09   2646.0000  0.0  0.0   .4841E-08
19431.8012   .6548E+08    208.0000  0.0  0.0   .1527E-07
19430.8193   .6296E+08    214.0000  0.0  0.0   .1588E-07
19429.8752   .5792E+08    218.0000  0.0  0.0   .1727E-07
19427.1567   .2089E+09   2515.0000  0.0  0.0   .4786E-08
19427.1567   .2039E+09   2516.0000  0.0  0.0   .4904E-08
19426.7792   .1989E+09   2518.0000  0.0  0.0   .5028E-08
19425.7977   .6041E+08    172.0000  0.0  0.0   .1655E-07
19424.6276   .5789E+08    178.0000  0.0  0.0   .1728E-07
19423.7219   .5285E+08    183.0000  0.0  0.0   .1892E-07
19421.4956   .2038E+09   2390.0000  0.0  0.0   .4907E-08
19421.4201   .1988E+09   2391.0000  0.0  0.0   .5031E-08
19420.9297   .1937E+09   2393.0000  0.0  0.0   .5162E-08
19419.9865   .5534E+08    139.0000  0.0  0.0   .1807E-07
19418.6663   .5030E+08    146.0000  0.0  0.0   .1988E-07
19417.5725   .4778E+08    151.0000  0.0  0.0   .2093E-07
19415.3853   .1986E+09   2267.0000  0.0  0.0   .5034E-08
19415.3853   .1936E+09   2269.0000  0.0  0.0   .5165E-08
19414.9706   .1886E+09   2271.0000  0.0  0.0   .5303E-08
19414.4427   .5028E+08    109.0000  0.0  0.0   .1989E-07
19412.9725   .4525E+08    117.0000  0.0  0.0   .2210E-07
19411.9170   .4022E+08    123.0000  0.0  0.0   .2487E-07
19410.1833   .1935E+09   2149.0000  0.0  0.0   .5168E-08
19410.0703   .1885E+09   2150.0000  0.0  0.0   .5306E-08
19409.6181   .1834E+09   2152.0000  0.0  0.0   .5451E-08
19409.2036   .4523E+08     83.0000  0.0  0.0   .2211E-07
19407.4704   .4020E+08     91.0000  0.0  0.0   .2488E-07
19406.1895   .3517E+08     97.0000  0.0  0.0   .2843E-07
19404.6075   .1884E+09   2033.0000  0.0  0.0   .5309E-08
19404.5698   .1833E+09   2035.0000  0.0  0.0   .5454E-08
19404.1932   .3767E+08     59.0000  0.0  0.0   .2654E-07
19404.1555   .1783E+09   2036.0000  0.0  0.0   .5608E-08
19402.2349   .3515E+08     68.0000  0.0  0.0   .2845E-07
19400.9548   .3013E+08     75.0000  0.0  0.0   .3319E-07
19399.8630   .1833E+09   1920.0000  0.0  0.0   .5457E-08
19399.7124   .1782E+09   1922.0000  0.0  0.0   .5611E-08
19399.5242   .3263E+08     39.0000  0.0  0.0   .3064E-07
19399.2607   .1732E+09   1924.0000  0.0  0.0   .5773E-08
19397.1905   .3012E+08     49.0000  0.0  0.0   .3320E-07
19395.5347   .2509E+08     57.0000  0.0  0.0   .3985E-07
19395.0832   .2760E+08     21.0000  0.0  0.0   .3623E-07
19394.7822   .1781E+09   1811.0000  0.0  0.0   .5613E-08
19394.7446   .1731E+09   1813.0000  0.0  0.0   .5776E-08
19394.2931   .1681E+09   1815.0000  0.0  0.0   .5949E-08
19392.4497   .2508E+08     33.0000  0.0  0.0   .3987E-07
19391.0203   .2006E+08      7.0000  0.0  0.0   .4984E-07
19390.7194   .2006E+08     42.0000  0.0  0.0   .4984E-07
19390.4938   .1730E+09   1704.0000  0.0  0.0   .5779E-08
19390.3434   .1680E+09   1707.0000  0.0  0.0   .5951E-08
19389.8921   .1630E+09   1708.0000  0.0  0.0   .6135E-08
19387.8991   .1755E+08     21.0000  0.0  0.0   .5698E-07
19387.1096   .1504E+08      0.0000  0.0  0.0   .6648E-07
19385.9442   .1680E+09   1601.0000  0.0  0.0   .5954E-08
19385.8690   .1629E+09   1603.0000  0.0  0.0   .6137E-08
19385.6058   .1504E+08     31.0000  0.0  0.0   .6649E-07
