      4974.00
26271.8582   .6602E+00   3735.9100 16.5 16.5   .1515E+01
26271.6511   .9383E+02   4200.3400 17.5 18.5   .1066E-01
26271.4232   .9393E+02   4200.3300 16.5 17.5   .1065E-01
26271.4094   .5913E+00   4200.3400 17.5 17.5   .1691E+01
26270.7605   .1072E+03  26304.3700 39.5 40.5   .9327E-02
26270.1599   .9059E+02   8007.3900 24.5 25.5   .1104E-01
26269.7803   .3200E+00   8007.3900 24.5 24.5   .3125E+01
26269.1728   .9059E+02   8008.0000 23.5 24.5   .1104E-01
26267.4956   .5722E+01  11615.9200 21.5 21.5   .1748E+00
26267.1575   .1235E+04  11616.2600 22.5 21.5   .8100E-03
26266.3500   .1232E+04  11615.9200 21.5 20.5   .8115E-03
26265.0044   .2229E+04  14570.0150 19.5 18.5   .4486E-03
26264.6801   .3214E+01  14570.3360 18.5 18.5   .3111E+00
26264.2730   .2231E+04  14570.3360 18.5 17.5   .4482E-03
26263.4312   .8988E+02   9255.4500 26.5 27.5   .1113E-01
26263.1828   .1288E+04  12409.1920 19.5 19.5   .7766E-03
26263.0931   .3317E+01  12409.2760 18.5 19.5   .3015E+00
26262.9276   .2795E+00   9255.4500 26.5 26.5   .3577E+01
26262.9000   .7829E+00    410.7100  5.5  6.5   .1277E+01
26262.8379   .9004E+02   9255.5400 25.5 26.5   .1111E-01
26262.8172   .9430E+02   3745.1200 16.5 17.5   .1060E-01
26262.7965   .9448E+02   3744.9700 15.5 16.5   .1058E-01
26262.6516   .6597E+00   3745.1200 16.5 16.5   .1516E+01
26262.5964   .1243E+03  20988.2460 34.5 35.5   .8045E-02
26261.8927   .7828E+00    411.7200  5.5  6.5   .1277E+01
26261.6306   .3170E+01  12409.1920 19.5 18.5   .3155E+00
26261.5478   .1288E+04  12409.2760 18.5 18.5   .7762E-03
26261.4926   .1244E+03  20988.9710 33.5 34.5   .8041E-02
26261.0028   .9520E+02   3304.9100 14.5 15.5   .1050E-01
26260.6510   .9512E+02   3305.4700 15.5 16.5   .1051E-01
26260.4372   .7440E+00   3305.4700 15.5 15.5   .1344E+01
26260.2027   .3585E+00   4202.8100 10.5 11.5   .2789E+01
26259.8992   .1360E+02  17020.2320 20.5 19.5   .7351E-01
26259.6922   .5464E+04  17020.2320 20.5 20.5   .1830E-03
26259.6509   .5466E+04  17020.4790 19.5 19.5   .1830E-03
26259.4439   .1290E+02  17020.4790 19.5 20.5   .7754E-01
26258.9473   .7876E-01  10614.7400 27.5 26.5   .1270E+02
26258.1680   .9021E+02   8632.4100 25.5 26.5   .1108E-01
26257.8714   .2983E+00   8632.4100 25.5 25.5   .3352E+01
26257.2232   .9029E+02   8633.0600 24.5 25.5   .1108E-01
26256.4922   .3584E+00   4206.5200 10.5 11.5   .2790E+01
26255.2855   .3152E+04  13649.5990 10.5  9.5   .3173E-03
26252.9758   .3142E+04  13651.9510  9.5  8.5   .3183E-03
26252.9275   .4576E+02  13651.9510  9.5  9.5   .2185E-01
26252.6173   .1233E+04  11630.8000 22.5 21.5   .8109E-03
26252.3622   .9506E+02   3313.7600 15.5 16.5   .1052E-01
26252.3416   .9513E+02   3313.5700 14.5 15.5   .1051E-01
26252.3002   .5715E+01  11631.1200 21.5 21.5   .1750E+00
26252.1485   .7436E+00   3313.7600 15.5 15.5   .1345E+01
26251.1559   .1231E+04  11631.1200 21.5 20.5   .8125E-03
26248.6471   .4029E+00  10052.3510 12.5 11.5   .2482E+01
26248.3714   .1043E+01   8705.0590  7.5  6.5   .9589E+00
26247.8683   .9599E+02   2898.7500 13.5 14.5   .1042E-01
26247.2826   .9575E+02   2899.4000 14.5 15.5   .1044E-01
26247.2206   .8437E+00   2899.4000 14.5 14.5   .1185E+01
26246.5315   .2214E+04  15012.4440 20.5 19.5   .4516E-03
26246.2008   .2892E+01  15012.7770 19.5 19.5   .3458E+00
26245.7804   .2221E+04  15012.7770 19.5 18.5   .4503E-03
26244.8365   .8950E+02   9915.0400 27.5 28.5   .1117E-01
26244.8365   .4322E+00  14198.6390 32.5 32.5   .2314E+01
26244.6574   .1729E+03  14198.8170 33.5 32.5   .5785E-02
26244.6092   .8954E+02   9915.0400 26.5 27.5   .1117E-01
26244.6092   .2624E+00   9915.0400 27.5 27.5   .3810E+01
26244.1062   .6773E+01  19900.3750 26.5 26.5   .1476E+00
26244.0649   .1726E+03  14198.6390 32.5 31.5   .5794E-02
26243.6584   .2582E+04  19900.3750 26.5 27.5   .3873E-03
26243.2382   .8974E+02   9275.6400 26.5 27.5   .1114E-01
26243.2038   .2587E+04  19901.2740 25.5 26.5   .3866E-03
26242.7422   .2791E+00   9275.6400 26.5 26.5   .3583E+01
26242.0120   .8990E+02   9276.3700 25.5 26.5   .1112E-01
26241.9225   .1886E+01  22132.4620 32.5 33.5   .5301E+00
26241.7296   .4026E+00  10059.2700 12.5 11.5   .2484E+01
26241.6401   .4117E+04  22132.4620 32.5 32.5   .2429E-03
26241.3026   .1397E+02  12875.4470  5.5  4.5   .7160E-01
26241.0959   .3501E+03   2906.4500 13.5 12.5   .2857E-02
26240.1730   .9593E+02   2906.4500 13.5 14.5   .1042E-01
26240.0628   .9570E+02   2906.6200 14.5 15.5   .1045E-01
26240.0008   .8432E+00   2906.6200 14.5 14.5   .1186E+01
26239.5325   .1807E+07  24327.2830 38.5 38.5   .5534E-06
26238.3411   .2338E+03  24327.2830 38.5 39.5   .4276E-02
26237.7971   .4116E+04  22136.5840 33.5 33.5   .2429E-03
26237.5217   .1943E+01  22136.5840 33.5 32.5   .5147E+00
26236.9089   .3371E+01  11130.7990 15.5 15.5   .2966E+00
26236.5026   .2306E+03  24330.3170 39.5 38.5   .4337E-02
26235.9656   .5467E+03  11131.7420 16.5 15.5   .1829E-02
26235.8761   .5468E+03  11130.7990 15.5 14.5   .1829E-02
26235.3046   .1806E+07  24330.3170 39.5 39.5   .5536E-06
26233.3220   .9676E+02   2517.3900 12.5 13.5   .1033E-01
26232.6405   .9654E+02   2518.1400 13.5 14.5   .1036E-01
26232.5717   .9675E+00   2518.1400 13.5 13.5   .1034E+01
26231.4429   .3826E+01   5716.6900  4.5  3.5   .2614E+00
26227.7130   .3106E+04  13897.6670 11.5 10.5   .3219E-03
26227.5135   .3369E+01  11140.1920 15.5 15.5   .2968E+00
26227.4240   .5464E+03  11140.2820 16.5 15.5   .1830E-02
26227.0594   .2868E+06   3735.4300 15.5 14.5   .3487E-05
26226.6878   .1255E+01   3735.4300 15.5 15.5   .7971E+00
26226.4814   .5464E+03  11140.1920 15.5 14.5   .1830E-02
26226.4608   .9671E+02   2524.2500 12.5 13.5   .1034E-01
26226.3232   .9649E+02   2524.4600 13.5 14.5   .1036E-01
26226.2681   .2205E+04  15472.7800 21.5 20.5   .4536E-03
26226.2475   .9671E+00   2524.4600 13.5 13.5   .1034E+01
26226.2062   .2847E+06   3735.9100 16.5 15.5   .3512E-05
26225.9173   .2614E+01  15473.1270 20.5 20.5   .3825E+00
26225.6214   .3101E+04  13899.8120 10.5  9.5   .3224E-03
26225.5664   .3786E+02  13899.8120 10.5 10.5   .2641E-01
26225.4976   .2206E+04  15473.1270 20.5 19.5   .4534E-03
26225.2981   .1068E+03  25736.6270 39.5 40.5   .9359E-02
26224.6996   .8921E+02  10591.4400 28.5 29.5   .1121E-01
26224.2593   .1068E+03  25737.2160 38.5 39.5   .9366E-02
26223.7366   .5164E+05  22750.3620 33.5 33.5   .1936E-04
26223.5302   .8935E+02   9936.3500 27.5 28.5   .1119E-01
26223.3032   .2620E+00   9936.3500 27.5 27.5   .3817E+01
26222.9180   .2231E+02  22750.3620 33.5 34.5   .4483E-01
26222.5604   .8939E+02   9937.0900 26.5 27.5   .1119E-01
26222.4297   .4346E+00   3935.7100  9.5 10.5   .2301E+01
26222.2509   .2472E+00  10591.4400 28.5 28.5   .4045E+01
26222.1064   .8914E+02  10591.5800 27.5 28.5   .1122E-01
26219.3969   .4345E+00   3938.7400  9.5 10.5   .2302E+01
26219.1906   .2301E+02  22754.9050 34.5 33.5   .4346E-01
26218.3723   .5167E+05  22754.9050 34.5 34.5   .1935E-04
26217.1622   .9780E+02   2161.3400 11.5 12.5   .1022E-01
26216.8047   .1725E+03  14226.6700 33.5 32.5   .5798E-02
26216.3991   .9753E+02   2162.1400 12.5 13.5   .1025E-01
26216.3579   .1123E+01   2162.1400 12.5 12.5   .8906E+00
26215.7666   .4312E+00  14227.7100 32.5 32.5   .2319E+01
26214.9967   .1722E+03  14227.7100 32.5 31.5   .5807E-02
26212.5635   .8110E+00   8927.7950  8.5  7.5   .1233E+01
26211.2578   .9776E+02   2167.2400 11.5 12.5   .1023E-01
26211.1616   .1161E+01    269.9400  4.5  5.5   .8611E+00
26210.8867   .9749E+02   2167.6500 12.5 13.5   .1026E-01
26210.8523   .1122E+01   2167.6500 12.5 12.5   .8910E+00
26210.5087   .1161E+01    270.5900  4.5  5.5   .8612E+00
26208.8184   .5442E+04  17460.9220 20.5 20.5   .1837E-03
26208.6604   .1238E+02  17461.0800 21.5 20.5   .8076E-01
26208.5848   .1176E+02  17460.9220 20.5 21.5   .8500E-01
26208.4268   .5452E+04  17461.0800 21.5 21.5   .1834E-03
26205.7750   .8946E+00  10112.7300 18.5 17.5   .1118E+01
26204.2364   .1977E+04  25736.6270 39.5 40.5   .5057E-03
26203.8449   .2195E+04  15950.4300 22.5 21.5   .4556E-03
26203.6801   .1976E+04  25737.2160 38.5 39.5   .5061E-03
26203.4878   .2374E+01  15950.7890 21.5 21.5   .4213E+00
26203.0619   .2196E+04  15950.7890 21.5 20.5   .4554E-03
26202.3202   .4065E+00  10411.8900 23.5 22.5   .2460E+01
26202.2722   .8906E+02  10613.8700 28.5 29.5   .1123E-01
26199.8276   .9898E+02   1831.0000 10.5 11.5   .1010E-01
26199.8207   .2468E+00  10613.8700 28.5 28.5   .4052E+01
26198.9488   .8898E+02  10614.7400 27.5 28.5   .1124E-01
26198.9213   .1320E+01   1831.9100 11.5 11.5   .7577E+00
26198.7977   .3073E+04  14166.7370 12.5 11.5   .3255E-03
26198.7909   .9879E+02   1831.9100 11.5 12.5   .1012E-01
26196.8893   .3064E+04  14168.7080 11.5 10.5   .3264E-03
26196.8275   .3180E+02  14168.7080 11.5 11.5   .3145E-01
26196.6696   .8877E+02  11283.5770 29.5 30.5   .1127E-01
26195.7155   .1008E+02  13035.1860  6.5  5.5   .9922E-01
26194.8095   .9894E+02   1836.0200 10.5 11.5   .1011E-01
26194.4320   .2330E+00  11283.5770 29.5 29.5   .4291E+01
26194.3084   .1319E+01   1836.5200 11.5 11.5   .7580E+00
26194.1780   .9876E+02   1836.5200 11.5 12.5   .1013E-01
26193.9241   .8938E+00  10124.5800 18.5 17.5   .1119E+01
26193.9172   .8880E+02  11284.0900 28.5 29.5   .1126E-01
26192.6065   .1234E+03  20333.6140 33.5 34.5   .8102E-02
26191.5086   .1233E+03  20334.3020 32.5 33.5   .8110E-02
26188.6887   .2502E+01   5873.1200  5.5  4.5   .3996E+00
26188.0507   .2754E+04  13877.1000 26.5 26.5   .3631E-03
26188.0301   .4977E+01  13877.1200 25.5 26.5   .2009E+00
26186.5073   .4681E+01  13877.1000 26.5 25.5   .2137E+00
26186.4867   .2756E+04  13877.1200 25.5 25.5   .3628E-03
26186.0272   .6608E+03  12928.6490 28.5 27.5   .1513E-02
26185.5265   .2249E+01  12929.1440 27.5 27.5   .4446E+00
26185.3962   .6608E+03  12929.2800 28.5 27.5   .1513E-02
26184.6212   .2249E+01  12930.0500 27.5 27.5   .4446E+00
26184.5389   .6589E+03  12929.1440 27.5 26.5   .1518E-02
26184.3263   .4059E+00  10429.8800 23.5 22.5   .2463E+01
26183.6336   .6589E+03  12930.0500 27.5 26.5   .1518E-02
26182.8313   .1064E+03  25152.2080 38.5 39.5   .9395E-02
26182.5091   .5397E+00   3694.3200  8.5  9.5   .1853E+01
26181.7617   .1064E+03  25152.7830 37.5 38.5   .9396E-02
26181.1926   .1002E+03   1526.7600  9.5 10.5   .9984E-02
26180.1367   .1573E+01   1527.8100 10.5 10.5   .6358E+00
26180.0270   .5396E+00   3696.8000  8.5  9.5   .1853E+01
26179.9585   .1002E+03   1527.8100 10.5 11.5   .9980E-02
26179.2729   .7723E+02  24994.2920 40.5 41.5   .1295E-01
26178.9096   .2184E+04  16444.7580 23.5 22.5   .4578E-03
26178.8342   .6483E+00   9174.2190  9.5  8.5   .1543E+01
26178.5394   .2164E+01  16445.1300 22.5 22.5   .4621E+00
26178.1076   .2186E+04  16445.1300 22.5 21.5   .4575E-03
26177.0109   .1001E+03   1530.9400  9.5 10.5   .9987E-02
26176.2981   .1572E+01   1531.6500 10.5 10.5   .6360E+00
26176.1199   .1002E+03   1531.6500 10.5 11.5   .9983E-02
26172.6181   .8860E+02  11307.6300 29.5 30.5   .1129E-01
26171.7411   .2751E+04  13893.4100 26.5 26.5   .3636E-03
26171.3780   .4971E+01  13893.7700 25.5 26.5   .2012E+00
26170.3777   .2326E+00  11307.6300 29.5 29.5   .4299E+01
26170.1996   .4675E+01  13893.4100 26.5 25.5   .2139E+00
26169.8366   .2753E+04  13893.7700 25.5 25.5   .3633E-03
26169.6996   .8863E+02  11308.3100 28.5 29.5   .1128E-01
26168.3090   .2995E+01  12859.5470 19.5 20.5   .3339E+00
26168.2200   .3039E+04  14456.4520 13.5 12.5   .3291E-03
26167.2679   .1281E+04  12860.5850 20.5 20.5   .7809E-03
26166.6378   .1281E+04  12859.5470 19.5 19.5   .7806E-03
26166.4666   .3030E+04  14458.2750 12.5 11.5   .3300E-03
26166.3981   .2714E+02  14458.2750 12.5 12.5   .3684E-01
26165.5969   .2868E+01  12860.5850 20.5 19.5   .3487E+00
26163.2550   .2204E+00  11991.4430 30.5 30.5   .4538E+01
26162.9880   .8833E+02  11991.7100 29.5 30.5   .1132E-01
26162.9743   .8838E+02  11991.4430 30.5 31.5   .1132E-01
26161.7898   .1768E+01  22750.3620 33.5 34.5   .5657E+00
26161.5502   .4092E+04  22750.3620 33.5 33.5   .2444E-03
26161.5365   .1020E+03   1248.9100  8.5  9.5   .9808E-02
26161.2832   .7116E+03  14355.9680 22.5 23.5   .1405E-02
26160.2906   .1916E+01   1250.1600  9.5  9.5   .5219E+00
26160.1332   .1016E+03   1250.1600  9.5 10.5   .9840E-02
26160.0989   .1969E+01  14357.1490 23.5 23.5   .5079E+00
26158.4904   .1898E+01    157.2600  3.5  4.5   .5268E+00
26158.1687   .1898E+01    157.5800  3.5  4.5   .5268E+00
26158.0729   .1019E+03   1252.3800  8.5  9.5   .9810E-02
26157.2516   .4095E+04  22754.9050 34.5 34.5   .2442E-03
26157.0805   .1916E+01   1253.3700  9.5  9.5   .5220E+00
26157.0052   .1823E+01  22754.9050 34.5 33.5   .5485E+00
26156.9231   .1016E+03   1253.3700  9.5 10.5   .9843E-02
26156.7589   .5041E+01  24327.2830 38.5 37.5   .1984E+00
26156.2661   .1280E+04  12871.5900 20.5 20.5   .7815E-03
26156.1293   .2993E+01  12871.7260 19.5 20.5   .3342E+00
26154.5965   .2865E+01  12871.5900 20.5 19.5   .3490E+00
26154.4596   .1280E+04  12871.7260 19.5 19.5   .7813E-03
26152.3250   .3558E+00  10390.1240 13.5 12.5   .2811E+01
26151.0868   .2172E+04  16955.0790 24.5 23.5   .4604E-03
26150.6969   .1985E+01  16955.4640 23.5 23.5   .5037E+00
26150.4643   .5276E+01  12154.7200 22.5 22.5   .1895E+00
26150.2728   .2174E+04  16955.4640 23.5 22.5   .4599E-03
26150.0676   .1231E+04  12155.1200 23.5 22.5   .8122E-03
26150.0266   .7638E+01  13217.1720  7.5  6.5   .1309E+00
26150.0197   .5428E+04  17918.2320 21.5 21.5   .1842E-03
26149.7598   .1077E+02  17918.2320 21.5 22.5   .9283E-01
26149.4178   .1131E+02  17918.8330 22.5 21.5   .8839E-01
26149.2400   .1229E+04  12154.7200 22.5 21.5   .8136E-03
26149.1579   .5424E+04  17918.8330 22.5 22.5   .1844E-03
26148.5766   .1770E+01   6055.0200  6.5  5.5   .5651E+00
26148.2414   .1967E+01  14369.0090 23.5 23.5   .5084E+00
26147.9610   .7108E+03  14369.2890 22.5 23.5   .1407E-02
26147.3934   .5321E+00   9444.0190 10.5  9.5   .1879E+01
26144.5694   .3556E+00  10397.8760 13.5 12.5   .2812E+01
26142.6893   .1059E+03  24555.1190 37.5 38.5   .9446E-02
26141.5955   .1059E+03  24555.6800 36.5 37.5   .9441E-02
26141.0829   .3015E+01  11532.7990 16.5 16.5   .3317E+00
26140.8573   .6895E+00   3479.0900  7.5  8.5   .1450E+01
26140.8573   .1039E+03    997.7700  7.5  8.5   .9627E-02
26140.1260   .5486E+03  11533.7550 17.5 16.5   .1823E-02
26139.9209   .5490E+03  11532.7990 16.5 15.5   .1821E-02
26139.2716   .2379E+01    999.3600  8.5  8.5   .4203E+00
26139.0529   .1037E+03    999.3600  8.5  9.5   .9645E-02
26139.0119   .6894E+00   3480.9400  7.5  8.5   .1451E+01
26138.2807   .2199E+00  12016.4200 30.5 30.5   .4547E+01
26138.0005   .8821E+02  12016.4200 30.5 31.5   .1134E-01
26137.9732   .1039E+03   1000.6600  7.5  8.5   .9629E-02
26137.7955   .6346E+01  20427.6320 27.5 27.5   .1576E+00
26137.3718   .8816E+02  12017.3300 29.5 30.5   .1134E-01
26137.3103   .2566E+04  20427.6320 27.5 28.5   .3897E-03
26136.9345   .2567E+04  20428.4970 26.5 27.5   .3895E-03
26136.7022   .2379E+01   1001.9300  8.5  8.5   .4204E+00
26136.4767   .1037E+03   1001.9300  8.5  9.5   .9647E-02
26135.6089   .3009E+04  14766.4360 14.5 13.5   .3323E-03
26134.7139   .1230E+04  12170.4700 23.5 22.5   .8132E-03
26134.1468   .5270E+01  12171.0400 22.5 22.5   .1898E+00
26133.9965   .3003E+04  14768.1310 13.5 12.5   .3330E-03
26133.9146   .2346E+02  14768.1310 13.5 13.5   .4262E-01
26132.9172   .1228E+04  12171.0400 22.5 21.5   .8146E-03
26132.7259   .5871E+05  26254.6350 41.5 40.5   .1703E-04
26130.9090   .3013E+01  11542.9730 16.5 16.5   .3319E+00
26130.8817   .5482E+03  11543.0010 17.5 16.5   .1824E-02
26129.7411   .5486E+03  11542.9730 16.5 15.5   .1823E-02
26125.5895   .8785E+02  12713.8130 31.5 32.5   .1138E-01
26125.0092   .2090E+00  12713.8130 31.5 31.5   .4785E+01
26124.6815   .8792E+02  12714.1400 30.5 31.5   .1137E-01
26120.0060   .2163E+04  17480.6480 25.5 24.5   .4623E-03
26119.9173   .1226E+03  19686.0120 32.5 33.5   .8155E-02
26119.6102   .1820E+01  17481.0460 24.5 24.5   .5494E+00
26119.1803   .2167E+04  17481.0460 24.5 23.5   .4615E-03
26119.0302   .1064E+03    773.8800  6.5  7.5   .9399E-02
26118.8323   .1226E+03  19686.6630 31.5 32.5   .8156E-02
26118.6685   .9221E+05  24888.9570 42.5 41.5   .1085E-04
26118.6276   .9231E+05  24890.3690 41.5 40.5   .1083E-04
26118.2591   .4453E+00   9736.8520 11.5 10.5   .2246E+01
26117.2902   .3047E+01    775.6200  7.5  7.5   .3282E+00
26117.2561   .1039E+01  24890.3690 41.5 41.5   .9622E+00
26116.9832   .1061E+03    775.6200  7.5  8.5   .9425E-02
26116.8399   .1064E+03    776.0700  6.5  7.5   .9400E-02
26115.2981   .3047E+01    777.6100  7.5  7.5   .3282E+00
26114.9911   .1061E+03    777.6100  7.5  8.5   .9426E-02
26111.0624   .1317E+01   6262.2100  7.5  6.5   .7592E+00
26104.4218   .3601E+01     73.0700  2.5  3.5   .2777E+00
26104.2991   .3601E+01     73.1900  2.5  3.5   .2777E+00
26104.1355   .5976E+01  13421.1280  8.5  7.5   .1673E+00
26103.5289   .1056E+03  23949.4100 36.5 37.5   .9468E-02
26102.4111   .1055E+03  23949.9580 35.5 36.5   .9478E-02
26100.5644   .2981E+04  15096.2970 15.5 14.5   .3355E-03
26099.5832   .8767E+02  12739.8200 31.5 32.5   .1141E-01
26099.0790   .2973E+04  15097.8800 14.5 13.5   .3363E-03
26098.9972   .2085E+00  12739.8200 31.5 31.5   .4795E+01
26098.9836   .2048E+02  15097.8800 14.5 14.5   .4884E-01
26098.1864   .8774E+02  12740.6300 30.5 31.5   .1140E-01
26097.3008   .9146E+00   3290.1600  6.5  7.5   .1093E+01
26096.3675   .1094E+03    577.2400  5.5  6.5   .9137E-02
26095.9111   .9145E+00   3291.5500  6.5  7.5   .1094E+01
26094.6919   .1094E+03    578.9200  5.5  6.5   .9139E-02
26094.5216   .8212E+00  10594.3500 19.5 18.5   .1218E+01
26094.2696   .4028E+01    579.3400  6.5  6.5   .2483E+00
26093.9495   .1094E+03    579.3400  6.5  7.5   .9139E-02
26093.2276   .2673E+05  22114.4880 32.5 31.5   .3741E-04
26093.0369   .2677E+05  22113.9830 33.5 32.5   .3736E-04
26092.7985   .4028E+01    580.8100  6.5  6.5   .2483E+00
26092.5329   .1311E+02  22114.4880 32.5 32.5   .7627E-01
26092.4785   .1094E+03    580.8100  6.5  7.5   .9140E-02
26091.9745   .3027E+03   3313.5700 14.5 13.5   .3304E-02
26090.8374   .3792E+00  10052.3510 12.5 11.5   .2637E+01
26089.9658   .1712E+03  14959.5800 33.5 32.5   .5841E-02
26089.5029   .1340E+04   1836.5200 11.5 12.5   .7463E-03
26087.5626   .1164E+04   2167.6500 12.5 13.5   .8593E-03
26085.3164   .2152E+04  18020.6500 26.5 25.5   .4646E-03
26085.3096   .1566E+04   1531.6500 10.5 11.5   .6387E-03
26084.9080   .1678E+01  18021.0620 25.5 25.5   .5958E+00
26084.5065   .3817E+00  11010.0800 24.5 23.5   .2620E+01
26084.4792   .2152E+04  18021.0620 25.5 24.5   .4646E-03
26082.9957   .1959E+04  26304.3700 39.5 40.5   .5105E-03
26082.4989   .5396E+04  18391.8130 22.5 22.5   .1853E-03
26082.2063   .9876E+01  18391.8130 22.5 23.5   .1013E+00
26081.5735   .8204E+00  10607.3000 19.5 18.5   .1219E+01
26081.4170   .1038E+02  18392.8980 23.5 22.5   .9637E-01
26081.1176   .5390E+04  18392.8980 23.5 23.5   .1855E-03
26080.9951   .8735E+02  13449.8810 32.5 33.5   .1145E-01
26080.5461   .8734E+02  13449.7170 31.5 32.5   .1145E-01
26080.3828   .1987E+00  13449.8810 32.5 32.5   .5032E+01
26079.3419   .1022E+04   2524.4600 13.5 14.5   .9781E-03
26076.3285   .1022E+01   6494.4400  8.5  7.5   .9783E+00
26075.5599   .1850E+04   1253.3700  9.5 10.5   .5405E-03
26074.7506   .1661E+01  23369.8060 34.5 35.5   .6022E+00
26074.5398   .4069E+04  23369.8060 34.5 34.5   .2458E-03
26072.9621   .1136E+03    408.1400  4.5  5.5   .8804E-02
26071.7382   .1136E+03    409.3600  4.5  5.5   .8804E-02
26070.3921   .5601E+01    410.7100  5.5  5.5   .1785E+00
26069.9570   .1136E+03    410.7100  5.5  6.5   .8805E-02
26069.7599   .4065E+04  23374.7950 35.5 35.5   .2460E-03
26069.5491   .1711E+01  23374.7950 35.5 34.5   .5844E+00
26069.3792   .5600E+01    411.7200  5.5  5.5   .1786E+00
26068.9509   .1136E+03    411.7200  5.5  6.5   .8805E-02
26068.4411   .2813E+06   4189.6600 16.5 15.5   .3554E-05
26068.0468   .7531E+00   4189.6600 16.5 16.5   .1328E+01
26067.6322   .2798E+06   4190.0700 17.5 16.5   .3574E-05
26065.8176   .3276E+00  10390.1240 13.5 12.5   .3053E+01
26065.0632   .3811E+00  11029.5300 24.5 23.5   .2624E+01
26064.2817   .1052E+03  23338.6370 35.5 36.5   .9506E-02
26063.8401   .9059E+03   2906.6200 14.5 15.5   .1104E-02
26063.1470   .1049E+03  23339.1700 34.5 35.5   .9531E-02
26062.6374   .2951E+04  15445.6260 16.5 15.5   .3388E-03
26061.2650   .2951E+04  15447.1090 15.5 14.5   .3388E-03
26061.1563   .1803E+02  15447.1090 15.5 15.5   .5547E-01
26061.0272   .1708E+03  14988.5200 33.5 32.5   .5854E-02
26060.6128   .2234E+04   1001.9300  8.5  9.5   .4476E-03
26057.8890   .4817E+01  13646.7640  9.5  8.5   .2076E+00
26054.0046   .8717E+02  13476.8700 32.5 33.5   .1147E-01
26053.3935   .1983E+00  13476.8700 32.5 32.5   .5043E+01
26052.3140   .8715E+02  13477.9500 31.5 32.5   .1147E-01
26052.1172   .1270E+01   3127.8400  5.5  6.5   .7876E+00
26051.9542   .2725E+01  13340.2720 20.5 21.5   .3670E+00
26051.4315   .3167E+00  10749.7530 14.5 13.5   .3158E+01
26051.1192   .1270E+01   3128.8400  5.5  6.5   .7876E+00
26050.8748   .1269E+04  13341.3510 21.5 21.5   .7883E-03
26050.3250   .9943E+01  23949.4100 36.5 36.5   .1006E+00
26050.1689   .1269E+04  13340.2720 20.5 20.5   .7879E-03
26049.7752   .2446E+05  23949.9580 35.5 36.5   .4088E-04
26049.2865   .2449E+05  23949.4100 36.5 37.5   .4084E-04
26049.0897   .2609E+01  13341.3510 21.5 20.5   .3833E+00
26049.0014   .8986E+01     17.7700  1.5  2.5   .1113E+00
26048.9607   .8986E+01     17.8100  1.5  2.5   .1113E+00
26048.9471   .1188E+03    266.8000  3.5  4.5   .8419E-02
26048.2006   .1188E+03    267.5500  3.5  4.5   .8420E-02
26046.6872   .2144E+04  18574.1860 27.5 26.5   .4664E-03
26046.2597   .1553E+01  18574.6110 26.5 26.5   .6438E+00
26045.8457   .2146E+04  18574.6110 26.5 25.5   .4660E-03
26045.8118   .8291E+01    269.9400  4.5  4.5   .1206E+00
26045.1604   .8291E+01    270.5900  4.5  4.5   .1206E+00
26045.1197   .1195E+03    269.9400  4.5  5.5   .8367E-02
26044.8686   .1219E+03  19046.8340 31.5 32.5   .8203E-02
26044.4683   .1195E+03    270.5900  4.5  5.5   .8368E-02
26044.3665   .8171E+00   6751.3100  9.5  8.5   .1224E+01
26044.1359   .1215E+02  24964.8650 40.5 40.5   .8227E-01
26043.7966   .1217E+03  19047.4460 30.5 31.5   .8215E-02
26043.6202   .2641E+01   9211.0900 17.5 18.5   .3787E+00
26043.1860   .8565E+06  24965.8120 39.5 40.5   .1168E-05
26042.8536   .3165E+00  10758.3350 14.5 13.5   .3160E+01
26042.7586   .8575E+06  24964.8650 40.5 41.5   .1166E-05
26042.5144   .2860E+00  10749.7530 14.5 13.5   .3497E+01
26041.7072   .6547E+03  13593.3900 29.5 28.5   .1527E-02
26041.6665   .6547E+03  13593.4290 29.5 28.5   .1527E-02
26041.1238   .2109E+01  13593.9750 28.5 28.5   .4742E+00
26041.0627   .2932E+01   8791.9200 16.5 17.5   .3411E+00
26040.9474   .2401E+01   9651.7900 18.5 19.5   .4165E+00
26040.8321   .2749E+04    777.6100  7.5  8.5   .3638E-03
26040.7304   .2109E+01  13594.3700 28.5 28.5   .4742E+00
26040.4998   .8109E+03   3313.7600 15.5 16.5   .1233E-02
26040.0792   .6550E+03  13593.9750 28.5 27.5   .1527E-02
26039.6858   .6550E+03  13594.3700 28.5 27.5   .1527E-02
26039.4620   .1268E+04  13352.7650 21.5 21.5   .7889E-03
26039.2789   .2722E+01  13352.9510 20.5 21.5   .3673E+00
26038.8448   .2711E+01  11955.2670 17.5 17.5   .3689E+00
26037.8683   .5496E+03  11956.2430 18.5 17.5   .1819E-02
26037.6784   .2607E+01  13352.7650 21.5 20.5   .3836E+00
26037.5496   .5506E+03  11955.2670 17.5 16.5   .1816E-02
26037.4885   .1268E+04  13352.9510 20.5 20.5   .7887E-03
26034.0983   .2639E+01   9220.6100 17.5 18.5   .3789E+00
26033.7933   .3279E+01   8394.7000 15.5 16.5   .3050E+00
26032.9730   .2198E+01  10113.0600 19.5 20.5   .4551E+00
26032.4917   .2930E+01   8800.4900 16.5 17.5   .3413E+00
26030.5057   .2399E+01   9662.2300 18.5 19.5   .4168E+00
26029.3603   .8689E+02  14198.8170 33.5 34.5   .1151E-01
26028.8995   .8681E+02  14198.6390 32.5 33.5   .1152E-01
26028.7233   .1895E+00  14198.8170 33.5 33.5   .5278E+01
26028.5539   .2720E+04  14481.8570 26.5 26.5   .3676E-03
26027.9643   .5492E+03  11966.1460 18.5 17.5   .1821E-02
26027.9372   .2708E+01  11966.1750 17.5 17.5   .3692E+00
26027.3341   .4351E+01  14483.0730 27.5 26.5   .2298E+00
26026.6430   .5502E+03  11966.1750 17.5 16.5   .1818E-02
26026.2975   .3277E+01   8402.1900 15.5 16.5   .3051E+00
26024.3327   .1261E+03    153.1600  2.5  3.5   .7928E-02
26024.2447   .4871E+01  12711.9700 23.5 23.5   .2053E+00
26024.1363   .1046E+03  22725.9170 34.5 35.5   .9560E-02
26023.8924   .1261E+03    153.6000  2.5  3.5   .7929E-02
26023.6621   .1224E+04  12712.5500 24.5 23.5   .8173E-03
26023.0118   .3704E+01   8019.0800 14.5 15.5   .2700E+00
26022.9847   .1047E+03  22726.4370 33.5 34.5   .9555E-02
26022.9373   .1225E+04  12711.9700 23.5 22.5   .8164E-03
26021.4268   .2196E+01  10124.6100 19.5 20.5   .4555E+00
26021.3455   .2926E+04  15813.9910 17.5 16.5   .3417E-03
26021.2507   .2527E+00  11130.7990 15.5 14.5   .3957E+01
26020.2281   .1345E+02    157.2600  3.5  3.5   .7436E-01
26020.0791   .2928E+04  15815.3870 16.5 15.5   .3415E-03
26019.9504   .1601E+02  15815.3870 16.5 16.5   .6248E-01
26019.9098   .1345E+02    157.5800  3.5  3.5   .7436E-01
26019.3680   .1279E+03    157.2600  3.5  4.5   .7821E-02
26019.0498   .1279E+03    157.5800  3.5  4.5   .7821E-02
26018.7721   .2020E+01  10594.7000 20.5 21.5   .4951E+00
26018.1965   .5974E+01  20966.0200 28.5 28.5   .1674E+00
26018.1559   .7843E+02  23658.9660 37.5 36.5   .1275E-01
26017.6616   .2550E+04  20966.0200 28.5 29.5   .3922E-03
26017.3637   .2548E+04  20966.8530 27.5 28.5   .3924E-03
26016.3684   .3479E+04    580.8100  6.5  7.5   .2874E-03
26015.7659   .3702E+01   8026.3300 14.5 15.5   .2701E+00
26014.9468   .6707E+00   7032.5400 10.5  9.5   .1491E+01
26011.1090   .3976E+01  13893.7730 10.5  9.5   .2515E+00
26010.1007   .4345E+01  14500.3100 27.5 26.5   .2301E+00
26009.6811   .2717E+04  14500.7300 26.5 26.5   .3681E-03
26008.3481   .7296E+03   3745.1200 16.5 17.5   .1371E-02
26008.2128   .1222E+04  12728.0000 24.5 23.5   .8182E-03
26007.8745   .4865E+01  12728.3400 23.5 23.5   .2055E+00
26007.1777   .4219E+01   7667.4000 13.5 14.5   .2370E+00
26006.5688   .1223E+04  12728.3400 23.5 22.5   .8174E-03
26006.3455   .2018E+01  10607.1300 20.5 21.5   .4956E+00
26005.4999   .5358E+04  18880.9990 23.5 23.5   .1866E-03
26005.2767   .1884E+01   2992.3400  4.5  5.5   .5308E+00
26005.1752   .9105E+01  18880.9990 23.5 24.5   .1098E+00
26004.6070   .1884E+01   2993.0100  4.5  5.5   .5308E+00
26003.8900   .9571E+01  18882.6100 24.5 23.5   .1045E+00
26003.8089   .2133E+04  19140.2550 28.5 27.5   .4688E-03
26003.5586   .5361E+04  18882.6100 24.5 24.5   .1865E-03
26003.3692   .1439E+01  19140.6930 27.5 27.5   .6950E+00
26002.9634   .2132E+04  19140.6930 27.5 26.5   .4690E-03
26001.8002   .2259E+00  11532.7990 16.5 15.5   .4426E+01
26001.5027   .8670E+02  14226.6700 33.5 34.5   .1153E-01
26001.4012   .4217E+01   7673.1800 13.5 14.5   .2371E+00
26000.8670   .1891E+00  14226.6700 33.5 33.5   .5289E+01
25999.9271   .1339E+03     66.8400  1.5  2.5   .7466E-02
25999.8324   .8661E+02  14227.7100 32.5 33.5   .1155E-01
25999.6566   .1339E+03     67.1100  1.5  2.5   .7466E-02
25999.1427   .1454E+03   6325.9200 15.5 16.5   .6877E-02
25999.0413   .1451E+03   6326.3500 16.5 17.5   .6890E-02
25998.7100   .1044E+01   6326.3500 16.5 16.5   .9581E+00
25998.1691   .1441E+03   6762.6700 16.5 17.5   .6939E-02
25998.1624   .1440E+03   6763.0600 17.5 18.5   .6946E-02
25997.8717   .1867E+01  11095.9300 21.5 22.5   .5355E+00
25997.7770   .9348E+00   6763.0600 17.5 17.5   .1070E+01
25997.6621   .1465E+03   5912.0100 14.5 15.5   .6826E-02
25997.3579   .1464E+03   5912.5500 15.5 16.5   .6831E-02
25997.1213   .1174E+01   5912.5500 15.5 15.5   .8514E+00
25995.0325   .5056E+01  24991.0740 39.5 38.5   .1978E+00
25994.5188   .1432E+03   7221.9600 18.5 19.5   .6985E-02
25994.4377   .1433E+03   7221.6400 17.5 18.5   .6980E-02
25994.1201   .8416E+00   7221.9600 18.5 18.5   .1188E+01
25993.7010   .2534E+02     73.0700  2.5  2.5   .3947E-01
25993.6605   .1475E+03   5521.5000 13.5 14.5   .6780E-02
25993.5794   .2534E+02     73.1900  2.5  2.5   .3947E-01
25993.0995   .1475E+03   5522.1000 14.5 15.5   .6781E-02
25993.0590   .1336E+01   5522.1000 14.5 14.5   .7486E+00
25992.5792   .1412E+03     73.0700  2.5  3.5   .7084E-02
25992.4575   .1412E+03     73.1900  2.5  3.5   .7084E-02
25990.0722   .1450E+03   6335.3200 16.5 17.5   .6895E-02
25989.9506   .1453E+03   6335.1100 15.5 16.5   .6882E-02
25989.7412   .1043E+01   6335.3200 16.5 16.5   .9588E+00
25989.4101   .1463E+03   5920.5000 15.5 16.5   .6835E-02
25989.3087   .9203E+06  24307.7730 38.5 37.5   .1087E-05
25989.3020   .1464E+03   5920.3700 14.5 15.5   .6830E-02
25989.1669   .1174E+01   5920.5000 15.5 15.5   .8520E+00
25989.1061   .9197E+06  24306.8630 39.5 38.5   .1087E-05
25988.5386   .5601E+00   7337.9300 11.5 10.5   .1785E+01
25988.3021   .1439E+03   6772.9200 17.5 18.5   .6952E-02
25988.2008   .2475E+02  24307.7730 38.5 38.5   .4040E-01
25988.1670   .4870E+01   7338.5000 12.5 13.5   .2053E+00
25988.0386   .1440E+03   6772.8000 16.5 17.5   .6944E-02
25987.9170   .9341E+00   6772.9200 17.5 17.5   .1071E+01
25987.6874   .4566E+04    411.7200  5.5  6.5   .2190E-03
25987.6266   .1424E+03   7702.3700 18.5 19.5   .7021E-02
25987.5793   .1424E+03   7702.6200 19.5 20.5   .7024E-02
25987.3766   .7649E+00   7702.6200 19.5 19.5   .1307E+01
25987.2618   .1491E+03   5154.7300 12.5 13.5   .6706E-02
25986.5930   .1488E+03   5155.4700 13.5 14.5   .6722E-02
25986.5187   .1529E+01   5155.4700 13.5 13.5   .6539E+00
25986.2080   .1474E+03   5528.9500 13.5 14.5   .6784E-02
25986.1878   .1474E+03   5529.0100 14.5 15.5   .6785E-02
25986.1472   .1335E+01   5529.0100 14.5 14.5   .7490E+00
25984.3506   .1866E+01  11109.4500 21.5 22.5   .5360E+00
25984.0197   .2033E+00  11955.2670 17.5 16.5   .4920E+01
25983.7766   .1612E+03      0.0000  0.5  1.5   .6202E-02
25983.7496   .1430E+03   7232.7300 18.5 19.5   .6991E-02
25983.7428   .1612E+03      0.0400  0.5  1.5   .6202E-02
25983.3511   .1431E+03   7232.7300 17.5 18.5   .6986E-02
25983.3511   .8409E+00   7232.7300 18.5 18.5   .1189E+01
25983.0000   .4868E+01   7343.6700 12.5 13.5   .2054E+00
25982.4868   .1041E+03  22113.9830 33.5 34.5   .9607E-02
25981.3254   .1042E+03  22114.4880 32.5 33.5   .9595E-02
25981.2106   .1564E+01  23988.1130 35.5 36.5   .6394E+00
25981.0418   .4038E+04  23988.1130 35.5 35.5   .2477E-03
25980.6097   .1490E+03   5161.3800 12.5 13.5   .6710E-02
25980.5692   .1487E+03   5161.4900 13.5 14.5   .6725E-02
25980.5017   .1529E+01   5161.4900 13.5 13.5   .6542E+00
25978.8679   .1505E+03   4812.3500 11.5 12.5   .6646E-02
25978.3076   .7591E+00  11095.6100 20.5 19.5   .1317E+01
25978.2131   .1504E+03   4813.0300 12.5 13.5   .6650E-02
25978.1928   .1776E+01   4813.0300 12.5 12.5   .5631E+00
25977.4165   .1415E+03   8204.6000 20.5 21.5   .7065E-02
25977.3220   .1416E+03   8204.2600 19.5 20.5   .7062E-02
25976.9778   .6967E+00   8204.6000 20.5 20.5   .1435E+01
25976.1611   .2904E+04  16200.9460 18.5 17.5   .3444E-03
25975.7494   .4037E+04  23993.5740 36.5 36.5   .2477E-03
25975.7089   .1422E+03   7714.4900 19.5 20.5   .7030E-02
25975.5807   .1610E+01  23993.5740 36.5 35.5   .6210E+00
25975.5132   .7642E+00   7714.4900 19.5 19.5   .1309E+01
25975.1825   .1423E+03   7714.8200 18.5 19.5   .7027E-02
25974.9867   .2903E+04  16202.2630 17.5 16.5   .3445E-03
25974.8450   .1432E+02  16202.2630 17.5 17.5   .6983E-01
25973.2389   .1504E+03   4817.9800 11.5 12.5   .6649E-02
25972.8678   .1503E+03   4818.3700 12.5 13.5   .6652E-02
25972.8476   .1775E+01   4818.3700 12.5 12.5   .5634E+00
25971.4644   .2540E+03  26293.3090 41.5 41.5   .3937E-02
25969.4809   .8629E+02  14959.5800 33.5 34.5   .1159E-01
25969.3663   .1737E+01  11616.2600 22.5 23.5   .5757E+00
25969.2786   .1807E+00  14959.7760 34.5 34.5   .5534E+01
25968.4691   .1523E+03   4494.5400 10.5 11.5   .6564E-02
25967.8485   .2370E-01  26296.9210 42.5 41.5   .4220E+02
25967.8148   .1210E+03  18417.3470 30.5 31.5   .8264E-02
25967.7946   .1844E+00  12397.6940 18.5 17.5   .5424E+01
25967.5787   .2088E+01   4495.4300 11.5 11.5   .4789E+00
25967.4573   .1524E+03   4495.4300 11.5 12.5   .6561E-02
25966.8166   .6610E+03   4200.3400 17.5 18.5   .1513E-02
25966.7626   .1207E+03  18417.9200 29.5 30.5   .8287E-02
25966.0073   .6193E+02     17.7700  1.5  1.5   .1615E-01
25965.9668   .6193E+02     17.8100  1.5  1.5   .1615E-01
25965.6633   .5701E+01   7033.3600 11.5 12.5   .1754E+00
25965.4273   .5068E+05  23369.8060 34.5 34.5   .1973E-04
25964.9283   .4772E+00   7666.7600 12.5 11.5   .2096E+01
25964.5439   .2068E+02  23369.8060 34.5 35.5   .4835E-01
25964.4899   .1414E+03   8217.5300 20.5 21.5   .7072E-02
25964.3011   .1647E+03     17.7700  1.5  2.5   .6071E-02
25964.2607   .1647E+03     17.8100  1.5  2.5   .6071E-02
25964.0516   .6960E+00   8217.5300 20.5 20.5   .1437E+01
25963.9707   .7583E+00  11109.9500 20.5 19.5   .1319E+01
25963.8089   .1415E+03   8217.7700 19.5 20.5   .7069E-02
25963.8021   .1406E+03   8726.8400 21.5 22.5   .7110E-02
25963.6201   .1523E+03   4499.3900 10.5 11.5   .6567E-02
25963.5526   .6389E+00   8726.8400 21.5 21.5   .1565E+01
25963.5526   .3338E+01  14161.8320 11.5 10.5   .2996E+00
25963.4987   .1407E+03   8726.8900 20.5 21.5   .7105E-02
25963.0874   .2088E+01   4499.9200 11.5 11.5   .4790E+00
25962.9728   .1524E+03   4499.9200 11.5 12.5   .6563E-02
25961.2131   .5699E+01   7037.8100 11.5 12.5   .1755E+00
25960.4378   .2131E+02  23374.7950 35.5 34.5   .4692E-01
25959.5548   .5063E+05  23374.7950 35.5 35.5   .1975E-04
25956.9127   .3074E+01   2883.9600  3.5  4.5   .3254E+00
25956.6296   .3074E+01   2884.2400  3.5  4.5   .3254E+00
25956.4342   .2119E+04  19717.7380 29.5 28.5   .4718E-03
25956.3398   .1546E+03   4201.8000  9.5 10.5   .6468E-02
25955.9827   .1334E+01  19718.1900 28.5 28.5   .7496E+00
25955.8614   .8940E-01  25616.5430 42.5 41.5   .1119E+02
25955.5918   .2120E+04  19718.1900 28.5 27.5   .4716E-03
25955.3290   .2490E+01   4202.8100 10.5 10.5   .4016E+00
25955.0595   .1543E+03   4202.8100 10.5 11.5   .6481E-02
25954.8304   .1735E+01  11630.8000 22.5 23.5   .5763E+00
25954.7495   .6272E+04    270.5900  4.5  5.5   .1594E-03
25952.9640   .1682E+00  12859.5470 19.5 18.5   .5947E+01
25952.3105   .1546E+03   4205.8300  9.5 10.5   .6470E-02
25951.6166   .2489E+01   4206.5200 10.5 10.5   .4017E+00
25951.3471   .1543E+03   4206.5200 10.5 11.5   .6483E-02
25949.8787   .1405E+03   8740.7600 21.5 22.5   .7118E-02
25949.6295   .6382E+00   8740.7600 21.5 21.5   .1567E+01
25948.9424   .1406E+03   8741.4500 20.5 21.5   .7113E-02
25945.7301   .2845E+00  11130.7990 15.5 14.5   .3514E+01
25945.3329   .1400E+03   9269.8600 22.5 23.5   .7145E-02
25945.3127   .1398E+03   9269.4800 21.5 22.5   .7153E-02
25944.9289   .5882E+00   9269.8600 22.5 22.5   .1700E+01
25943.8112   .4114E+00   8019.1200 13.5 12.5   .2431E+01
25942.3571   .1571E+03   3934.4700  8.5  9.5   .6366E-02
25941.1387   .1803E+00  14987.9200 34.5 34.5   .5546E+01
25941.1185   .3028E+01   3935.7100  9.5  9.5   .3303E+00
25940.8829   .1569E+03   3935.7100  9.5 10.5   .6373E-02
25940.6742   .3590E+00  11645.7960 25.5 24.5   .2785E+01
25940.5396   .8610E+02  14988.5200 33.5 34.5   .1161E-01
25940.0685   .6774E+01   6752.2000 10.5 11.5   .1476E+00
25939.6714   .3590E+00  11646.8000 25.5 24.5   .2785E+01
25938.9916   .1570E+03   3937.8400  8.5  9.5   .6368E-02
25938.9176   .1036E+03  21505.2260 32.5 33.5   .9649E-02
25938.0898   .3027E+01   3938.7400  9.5  9.5   .3304E+00
25937.8475   .1569E+03   3938.7400  9.5 10.5   .6374E-02
25937.7466   .1036E+03  21505.7180 31.5 32.5   .9650E-02
25936.4277   .6773E+01   6755.8400 10.5 11.5   .1477E+00
25936.3335   .2843E+00  11140.1920 15.5 14.5   .3517E+01
25932.5660   .2641E+03   3744.9700 15.5 14.5   .3787E-02
25932.2835   .1621E+01  12155.1200 23.5 24.5   .6168E+00
25930.4002   .1398E+03   9284.7900 22.5 23.5   .7153E-02
25929.9966   .5875E+00   9284.7900 22.5 22.5   .1702E+01
25929.6469   .2454E+01  12397.6940 18.5 18.5   .4074E+00
25929.6066   .1396E+03   9285.1800 21.5 22.5   .7162E-02
25928.6449   .5494E+03  12398.6970 19.5 18.5   .1820E-02
25928.2212   .5500E+03  12397.6940 18.5 17.5   .1818E-02
25927.0916   .1605E+03   3692.8600  7.5  8.5   .6232E-02
25926.5201   .2883E+04  16606.0150 19.5 18.5   .3469E-03
25925.6326   .3770E+01   3694.3200  8.5  8.5   .2653E+00
25925.4376   .2879E+04  16607.2610 18.5 17.5   .3473E-03
25925.4309   .3601E+00   8394.1900 14.5 13.5   .2777E+01
25925.2763   .1288E+02  16607.2610 18.5 18.5   .7766E-01
25925.2494   .1602E+03   3694.3200  8.5  9.5   .6244E-02
25924.8191   .2528E+03  25647.4800 40.5 40.5   .3956E-02
25924.4292   .2482E+01  13839.2820 21.5 22.5   .4029E+00
25924.3216   .1604E+03   3695.6300  7.5  8.5   .6233E-02
25923.4814   .1389E+03   9831.3700 23.5 24.5   .7202E-02
25923.2999   .1258E+04  13840.4090 22.5 22.5   .7948E-03
25923.1721   .1391E+03   9831.1000 22.5 23.5   .7190E-02
25923.1520   .3769E+01   3696.8000  8.5  8.5   .2653E+00
25922.8966   .5436E+00   9831.3700 23.5 23.5   .1840E+01
25922.7688   .1601E+03   3696.8000  8.5  9.5   .6245E-02
25922.5201   .1259E+04  13839.2820 21.5 21.5   .7942E-03
25921.5120   .2530E+03  25650.8900 41.5 41.5   .3952E-02
25921.3977   .2382E+01  13840.4090 22.5 21.5   .4198E+00
25919.6436   .1899E+02  24884.4630 41.5 40.5   .5265E-01
25918.2796   .5326E+04  19385.0360 24.5 24.5   .1878E-03
25918.1452   .5490E+03  12409.1920 19.5 18.5   .1822E-02
25918.0645   .2452E+01  12409.2760 18.5 18.5   .4078E+00
25917.9705   .9169E+04    157.5800  3.5  4.5   .1091E-03
25917.9167   .8421E+01  19385.0360 24.5 25.5   .1188E+00
25916.9425   .6672E+02     66.8400  1.5  1.5   .1499E-01
25916.9358   .1619E+01  12170.4700 23.5 24.5   .6175E+00
25916.6670   .6672E+02     67.1100  1.5  1.5   .1499E-01
25916.6401   .5495E+03  12409.2760 18.5 17.5   .1820E-02
25916.0960   .8837E+01  19387.2190 25.5 24.5   .1132E+00
25915.7332   .5324E+04  19387.2190 25.5 25.5   .1878E-03
25915.2293   .3632E+02     66.8400  1.5  2.5   .2754E-01
25914.9606   .3632E+02     67.1100  1.5  2.5   .2754E-01
25914.9338   .2845E+01  14450.6030 12.5 11.5   .3515E+00
25913.9732   .6028E+03   4678.8700 18.5 19.5   .1659E-02
25913.6105   .1127E+03    153.1600  2.5  2.5   .8871E-02
25913.1672   .1127E+03    153.6000  2.5  2.5   .8871E-02
25912.4888   .1758E+02    153.1600  2.5  3.5   .5688E-01
25912.0522   .1758E+02    153.6000  2.5  3.5   .5688E-01
25911.5956   .1257E+04  13852.1150 22.5 22.5   .7955E-03
25911.4142   .8217E+01   6495.5400  9.5 10.5   .1217E+00
25911.3605   .2480E+01  13852.3490 21.5 22.5   .4033E+00
25910.7091   .1567E+02     73.0700  2.5  1.5   .6382E-01
25910.6889   .1321E+03    266.8000  3.5  3.5   .7568E-02
25910.5882   .1567E+02     73.1900  2.5  1.5   .6382E-01
25910.0980   .1640E+03   3477.3600  6.5  7.5   .6096E-02
25909.9503   .3184E+00   8791.6100 15.5 14.5   .3141E+01
25909.9368   .1321E+03    267.5500  3.5  3.5   .7569E-02
25909.8294   .1033E+02    266.8000  3.5  4.5   .9681E-01
25909.6884   .2380E+01  13852.1150 22.5 21.5   .4201E+00
25909.5071   .1047E+02    157.2600  3.5  2.5   .9552E-01
25909.4534   .1258E+04  13852.3490 21.5 21.5   .7950E-03
25909.1915   .1047E+02    157.5800  3.5  2.5   .9552E-01
25909.0774   .1033E+02    267.5500  3.5  4.5   .9682E-01
25908.9968   .9330E+02     73.0700  2.5  2.5   .1072E-01
25908.8826   .9330E+02     73.1900  2.5  2.5   .1072E-01
25908.4999   .8215E+01   6498.4500  9.5 10.5   .1217E+00
25908.3925   .1239E+03    157.2600  3.5  3.5   .8074E-02
25908.3723   .4818E+01   3479.0900  7.5  7.5   .2075E+00
25908.0702   .1239E+03    157.5800  3.5  3.5   .8074E-02
25908.0299   .1640E+03   3479.0900  7.5  8.5   .6099E-02
25908.0165   .1640E+03   3479.4400  6.5  7.5   .6097E-02
25907.6070   .1416E+03    408.1400  4.5  4.5   .7063E-02
25907.5465   .7045E+01    269.9400  4.5  3.5   .1419E+00
25907.3787   .1387E+03   9847.4700 23.5 24.5   .7211E-02
25907.1101   .5833E+01   2802.9300  2.5  3.5   .1714E+00
25907.0967   .5833E+01   2802.9400  2.5  3.5   .1714E+00
25906.9222   .6773E+01    408.1400  4.5  5.5   .1476E+00
25906.9020   .7045E+01    270.5900  4.5  3.5   .1419E+00
25906.8013   .5429E+00   9847.4700 23.5 23.5   .1842E+01
25906.6872   .1374E+03    269.9400  4.5  4.5   .7278E-02
25906.5194   .4818E+01   3480.9400  7.5  7.5   .2076E+00
25906.3918   .1416E+03    409.3600  4.5  4.5   .7064E-02
25906.2911   .1389E+03   9847.9800 22.5 23.5   .7199E-02
25906.1770   .1639E+03   3480.9400  7.5  8.5   .6100E-02
25906.0427   .1374E+03    270.5900  4.5  4.5   .7279E-02
25905.7004   .6773E+01    409.3600  4.5  5.5   .1477E+00
25905.0425   .4999E+01    410.7100  5.5  4.5   .2000E+00
25904.3646   .2107E+04  20305.3760 30.5 29.5   .4745E-03
25904.3512   .1448E+03    410.7100  5.5  5.5   .6907E-02
25904.0290   .4999E+01    411.7200  5.5  4.5   .2000E+00
25903.9015   .1244E+01  20305.8410 29.5 29.5   .8040E+00
25903.8612   .1471E+03    577.2400  5.5  5.5   .6797E-02
25903.5256   .2111E+04  20305.8410 29.5 28.5   .4738E-03
25903.4316   .4783E+01    577.2400  5.5  6.5   .2091E+00
25903.3377   .1448E+03    411.7200  5.5  5.5   .6908E-02
25902.1766   .1471E+03    578.9200  5.5  5.5   .6798E-02
25901.7606   .3712E+01    579.3400  6.5  5.5   .2694E+00
25901.7471   .4783E+01    578.9200  5.5  6.5   .2091E+00
25901.3311   .1488E+03    579.3400  6.5  6.5   .6720E-02
25900.2910   .3712E+01    580.8100  6.5  5.5   .2694E+00
25899.8616   .1488E+03    580.8100  6.5  6.5   .6720E-02
25899.7274   .1505E+03    773.8800  6.5  6.5   .6643E-02
25899.4120   .3553E+01    773.8800  6.5  7.5   .2814E+00
25897.9897   .2861E+01    775.6200  7.5  6.5   .3495E+00
25897.6676   .1515E+03    775.6200  7.5  7.5   .6599E-02
25897.5402   .1505E+03    776.0700  6.5  6.5   .6645E-02
25897.2786   .2841E+00   9210.8200 16.5 15.5   .3520E+01
25897.2182   .3552E+01    776.0700  6.5  7.5   .2815E+00
25895.9973   .2861E+01    777.6100  7.5  6.5   .3496E+00
25895.6820   .1515E+03    777.6100  7.5  7.5   .6600E-02
25895.6820   .2761E+06   4667.2800 17.5 16.5   .3621E-05
25895.5076   .1382E+03  10412.2400 24.5 25.5   .7235E-02
25895.2528   .1382E+03  10411.8900 23.5 24.5   .7234E-02
25895.1387   .1526E+03    997.7700  7.5  7.5   .6555E-02
25894.8973   .5042E+00  10412.2400 24.5 24.5   .1983E+01
25894.8302   .2750E+01    997.7700  7.5  8.5   .3637E+00
25893.5492   .2267E+01    999.3600  8.5  7.5   .4412E+00
25893.2407   .1535E+03    999.3600  8.5  8.5   .6513E-02
25893.1602   .1033E+03  20901.7440 31.5 32.5   .9683E-02
25892.2482   .1525E+03   1000.6600  7.5  7.5   .6556E-02
25891.9867   .1031E+03  20902.2220 30.5 31.5   .9699E-02
25891.9397   .2749E+01   1000.6600  7.5  8.5   .3637E+00
25891.8190   .1692E+03   3288.1400  5.5  6.5   .5911E-02
25890.9809   .2266E+01   1001.9300  8.5  7.5   .4412E+00
25890.6724   .1535E+03   1001.9300  8.5  8.5   .6514E-02
25890.2701   .1692E+03   3289.6900  5.5  6.5   .5912E-02
25889.8008   .6372E+01   3290.1600  6.5  6.5   .1569E+00
25889.7204   .1542E+03   1248.9100  8.5  8.5   .6484E-02
25889.4991   .2190E+01   1248.9100  8.5  9.5   .4567E+00
25889.4119   .1688E+03   3290.1600  6.5  7.5   .5926E-02
25889.0968   .1199E+03  17798.7100 29.5 30.5   .8337E-02
25888.4667   .1845E+01   1250.1600  9.5  8.5   .5419E+00
25888.4130   .6371E+01   3291.5500  6.5  6.5   .1570E+00
25888.2521   .1546E+03   1250.1600  9.5  9.5   .6467E-02
25888.0644   .1197E+03  17799.2430 28.5 29.5   .8352E-02
25888.0644   .4522E+01  13286.6000 24.5 24.5   .2211E+00
25888.0175   .1687E+03   3291.5500  6.5  7.5   .5926E-02
25887.8834   .1217E+04  13286.7800 25.5 24.5   .8216E-03
25887.0589   .2552E+00   9651.4100 17.5 16.5   .3919E+01
25886.6769   .1216E+04  13286.6000 24.5 23.5   .8221E-03
25886.2479   .1542E+03   1252.3800  8.5  8.5   .6486E-02
25886.0267   .2189E+01   1252.3800  8.5  9.5   .4568E+00
25885.2626   .1845E+01   1253.3700  9.5  8.5   .5420E+00
25885.0414   .1546E+03   1253.3700  9.5  9.5   .6468E-02
25884.8538   .1521E+01  12712.5500 24.5 25.5   .6573E+00
25884.7801   .5637E+01  21514.1260 29.5 29.5   .1774E+00
25884.4986   .6487E+03  14272.6670 30.5 29.5   .1541E-02
25884.1970   .2528E+04  21514.1260 29.5 30.5   .3955E-03
25884.0965   .1472E+00  13286.6000 24.5 23.5   .6793E+01
25883.9759   .2530E+04  21514.9300 28.5 29.5   .3953E-03
25883.9021   .1986E+01  14273.2630 29.5 29.5   .5034E+00
25883.6877   .1549E+03   1526.7600  9.5  9.5   .6454E-02
25883.5269   .1781E+01   1526.7600  9.5 10.5   .5613E+00
25883.1449   .1986E+01  14274.0200 29.5 29.5   .5035E+00
25882.8098   .6482E+03  14273.2630 29.5 28.5   .1543E-02
25882.6423   .1528E+01   1527.8100 10.5  9.5   .6544E+00
25882.4815   .1555E+03   1527.8100 10.5 10.5   .6431E-02
25882.1934   .6486E+03  14274.9700 30.5 29.5   .1542E-02
25882.0527   .6482E+03  14274.0200 29.5 28.5   .1543E-02
25881.8248   .1473E+01  24602.2160 36.5 37.5   .6787E+00
25881.6975   .4008E+04  24602.2160 36.5 36.5   .2495E-03
25879.9622   .1019E+02   6263.6400  8.5  9.5   .9817E-01
25879.8283   .2316E+00  10112.7300 18.5 17.5   .4318E+01
25879.5067   .1549E+03   1530.9400  9.5  9.5   .6456E-02
25879.3526   .1781E+01   1530.9400  9.5 10.5   .5615E+00
25878.7966   .1528E+01   1531.6500 10.5  9.5   .6546E+00
25878.6425   .1555E+03   1531.6500 10.5 10.5   .6433E-02
25878.4282   .1564E+00  12711.9700 23.5 22.5   .6394E+01
25878.3210   .1380E+03  10429.4300 24.5 25.5   .7244E-02
25877.7114   .5035E+00  10429.4300 24.5 24.5   .1986E+01
25877.6913   .1019E+02   6265.9100  8.5  9.5   .9818E-01
25877.2626   .1380E+03  10429.8800 23.5 24.5   .7244E-02
25876.9880   .1482E+05     73.1900  2.5  3.5   .6747E-04
25876.9478   .1558E+03   1831.0000 10.5 10.5   .6419E-02
25876.7670   .1482E+01   1831.0000 10.5 11.5   .6749E+00
25876.0570   .2517E+03  24991.0740 39.5 39.5   .3973E-02
25876.0370   .1290E+01   1831.9100 11.5 10.5   .7753E+00
25875.8628   .4001E+04  24608.1780 37.5 37.5   .2500E-03
25875.8628   .1562E+03   1831.9100 11.5 11.5   .6401E-02
25875.7356   .1516E+01  24608.1780 37.5 36.5   .6596E+00
25874.9520   .2119E+00  10594.3500 19.5 18.5   .4719E+01
25874.7980   .1677E+00  12154.7200 22.5 21.5   .5964E+01
25873.0034   .2518E+03  24994.2920 40.5 40.5   .3972E-02
25872.5280   .1801E+00  11615.9200 21.5 20.5   .5552E+01
25872.4275   .1949E+00  11095.6100 20.5 19.5   .5131E+01
25872.2602   .1752E+03   3125.3600  4.5  5.5   .5707E-02
25871.9321   .1557E+03   1836.0200 10.5 10.5   .6421E-02
25871.9120   .1216E+04  13302.7500 25.5 24.5   .8226E-03
25871.8317   .2862E+04  17028.6940 20.5 19.5   .3494E-03
25871.7513   .1481E+01   1836.0200 10.5 11.5   .6752E+00
25871.5438   .4517E+01  13303.1200 24.5 24.5   .2214E+00
25871.4299   .1289E+01   1836.5200 11.5 10.5   .7756E+00
25871.2492   .1562E+03   1836.5200 11.5 11.5   .6404E-02
25871.0818   .1752E+03   3126.5400  4.5  5.5   .5707E-02
25870.9680   .2626E+05  22726.4370 33.5 32.5   .3809E-04
25870.8341   .2857E+04  17029.8770 19.5 18.5   .3500E-03
25870.7270   .2626E+05  22725.9170 34.5 33.5   .3808E-04
25870.6466   .1166E+02  17029.8770 19.5 19.5   .8576E-01
25870.2115   .1217E+02  22726.4370 33.5 33.5   .8218E-01
25870.1579   .1215E+04  13303.1200 24.5 23.5   .8232E-03
25869.7831   .8842E+01   3127.8400  5.5  5.5   .1131E+00
25869.4885   .1565E+03   2161.3400 11.5 11.5   .6390E-02
25869.4484   .1756E+03   3127.8400  5.5  6.5   .5694E-02
25869.4015   .1520E+01  12728.0000 24.5 25.5   .6581E+00
25869.3613   .1252E+01   2161.3400 11.5 12.5   .7985E+00
25868.7790   .8841E+01   3128.8400  5.5  5.5   .1131E+00
25868.6920   .1100E+01   2162.1400 12.5 11.5   .9089E+00
25868.5581   .1566E+03   2162.1400 12.5 12.5   .6387E-02
25868.4510   .1756E+03   3128.8400  5.5  6.5   .5694E-02
25864.9374   .2458E+01  14759.7340 13.5 12.5   .4068E+00
25863.5924   .1564E+03   2167.2400 11.5 11.5   .6393E-02
25863.4586   .1252E+01   2167.2400 11.5 12.5   .7988E+00
25863.3984   .1374E+03  11010.2900 25.5 26.5   .7276E-02
25863.1776   .1100E+01   2167.6500 12.5 11.5   .9093E+00
25863.0505   .1565E+03   2167.6500 12.5 12.5   .6390E-02
25862.8966   .1376E+03  11010.0800 24.5 25.5   .7270E-02
25862.6892   .4704E+00  11010.2900 25.5 25.5   .2126E+01
25861.1504   .1072E+01   2517.3900 12.5 13.5   .9327E+00
25861.1103   .1568E+03   2517.3900 12.5 12.5   .6376E-02
