841
20910.9231   .2069E+02  16761.7930 14.5 15.5   .4833E-01
20910.9100   .2609E+01  21266.3380 17.5 16.5   .3833E+00
20910.7700   .1281E+03  21266.3380 17.5 17.5   .7806E-02
20910.7088   .9479E+02   3290.1600  6.5  7.5   .1055E-01
20910.5863   .4906E+02  12873.7090  6.5  7.5   .2038E-01
20910.5732   .4072E+05   8708.9950  8.5  9.5   .2456E-04
20910.3851   .2359E+02  16456.2880 13.5 14.5   .4239E-01
20909.9609   .6919E+02  19925.0570 18.5 18.5   .1445E-01
20909.5542   .7337E+00  19925.0570 18.5 17.5   .1363E+01
20909.4667   .1472E+02  17761.3580 17.5 18.5   .6791E-01
20909.3836   .7652E+00  17211.8240  8.5  9.5   .1307E+01
20909.3180   .9478E+02   3291.5500  6.5  7.5   .1055E-01
20906.9087   .2181E+03  11236.6940  9.5  9.5   .4585E-02
20906.8518   .3650E+05  11236.6940  9.5 10.5   .2740E-04
20906.7644   .3628E+05  11236.8380  8.5  9.5   .2756E-04
20905.1119   .1332E+02  18121.0720 18.5 19.5   .7506E-01
20904.6835   .1428E+01  24398.6340 25.5 24.5   .7004E+00
20904.3207   .1296E+03  24398.6340 25.5 25.5   .7716E-02
20903.8093   .5033E+05  11630.8000 22.5 22.5   .1987E-04
20903.6388   .1077E+03  11630.8000 22.5 21.5   .9287E-02
20903.4902   .1145E+03  11631.1200 21.5 22.5   .8733E-02
20903.3198   .5036E+05  11631.1200 21.5 21.5   .1986E-04
20902.9046   .2180E+03  11240.6970  9.5  9.5   .4586E-02
20902.8477   .3649E+05  11240.6970  9.5 10.5   .2741E-04
20902.6860   .3627E+05  11240.9180  8.5  9.5   .2757E-04
20902.0742   .3016E+02  18084.6650 12.5 13.5   .3316E-01
20901.7377   .1681E+01  18084.6650 12.5 12.5   .5949E+00
20901.2395   .1634E+05   4494.5400 10.5 11.5   .6120E-04
20900.8725   .6850E+00  19934.1430 17.5 18.5   .1460E+01
20900.8069   .2357E+02  16465.8690 13.5 14.5   .4243E-01
20900.4661   .6905E+02  19934.1430 17.5 17.5   .1448E-01
20900.3481   .2204E+03   4495.4300 11.5 11.5   .4537E-02
20900.2695   .1631E+05   4495.4300 11.5 12.5   .6131E-04
20896.5081   .2692E+05   9847.4700 23.5 23.5   .3715E-04
20896.3902   .1633E+05   4499.3900 10.5 11.5   .6122E-04
20896.2504   .5841E+02   9847.4700 23.5 22.5   .1712E-01
20896.0015   .6267E+02   9847.9800 22.5 23.5   .1596E-01
20895.8617   .2203E+03   4499.9200 11.5 11.5   .4539E-02
20895.7787   .1630E+05   4499.9200 11.5 12.5   .6134E-04
20895.7394   .2695E+05   9847.9800 22.5 22.5   .3711E-04
20895.6958   .1331E+02  18130.4890 18.5 19.5   .7513E-01
20895.3158   .2717E+02  16180.3150 12.5 13.5   .3681E-01
20894.5123   .3673E+02  24249.5530 28.5 27.5   .2723E-01
20894.0188   .1247E+03  11095.6100 20.5 21.5   .8022E-02
20893.9271   .2152E+02  22158.3390 27.5 26.5   .4647E-01
20893.7000   .5032E+05  11095.9300 21.5 21.5   .1987E-04
20893.6607   .5023E+05  11095.6100 20.5 20.5   .1991E-04
20893.3420   .1169E+03  11095.9300 21.5 20.5   .8552E-02
20892.3989   .2716E+03   5588.7000  4.5  5.5   .3682E-02
20891.7090   .2716E+03   5589.3900  4.5  5.5   .3682E-02
20890.9407   .2148E+02  22160.5970 26.5 25.5   .4655E-01
20890.5216   .1275E+03  21286.7280 16.5 16.5   .7842E-02
20890.5085   .5309E+02  19234.9220  8.5  9.5   .1884E-01
20890.3776   .2414E+01  21286.7280 16.5 17.5   .4143E+00
20889.3430   .3055E+02  18097.0600 11.5 12.5   .3273E-01
20888.8978   .3661E+02  24254.7590 27.5 26.5   .2732E-01
20888.8324   .2883E+01  20946.6320 16.5 15.5   .3469E+00
20888.7058   .1275E+03  20946.6320 16.5 16.5   .7844E-02
20888.2083   .1545E+01   7037.8100 11.5 12.5   .6472E+00
20887.4620   .2151E+01  18880.9990 23.5 23.5   .4649E+00
20886.4496   .2152E+01  18882.6100 24.5 24.5   .4646E+00
20886.4321   .2715E+02  16189.2000 12.5 13.5   .3684E-01
20884.5778   .2089E+05  15804.2930 17.5 18.5   .4786E-04
20883.6834   .4813E+01  15804.2930 17.5 17.5   .2078E+00
20882.7935   .6173E+02  29116.9380 35.5 36.5   .1620E-01
20882.7368   .2242E+03   7958.1320  3.5  4.5   .4459E-02
20882.7107   .2636E+02  18880.9990 23.5 22.5   .3794E-01
20882.5580   .2073E+05  16191.3620 18.5 19.5   .4823E-04
20882.4489   .2106E+05  15436.0540 16.5 17.5   .4749E-04
20882.4358   .9964E+00  16606.0150 19.5 20.5   .1004E+01
20882.4228   .2077E+05  15805.5550 16.5 17.5   .4815E-04
20882.3050   .2242E+03   7958.5630  3.5  4.5   .4460E-02
20881.8383   .1212E+02  18508.6020 19.5 20.5   .8252E-01
20881.6420   .5652E+01  15436.0540 16.5 16.5   .1769E+00
20881.5809   .1293E+03  24841.6120 25.5 25.5   .7733E-02
20881.5766   .4129E+01  16191.3620 18.5 18.5   .2422E+00
20881.1841   .1271E+01  24841.6120 25.5 26.5   .7866E+00
20881.1622   .4155E+05   8506.2960  6.5  7.5   .2407E-04
20880.7087   .9967E+00  16607.2610 18.5 19.5   .1003E+01
20880.6258   .2065E+05  16192.3150 17.5 18.5   .4843E-04
20880.1810   .5025E+05  11109.4500 21.5 21.5   .1990E-04
20880.0981   .2095E+05  15437.5980 15.5 16.5   .4774E-04
20879.8190   .1168E+03  11109.4500 21.5 20.5   .8564E-02
20879.8059   .7629E+03   8507.6560  7.5  7.5   .1311E-02
20879.6795   .1245E+03  11109.9500 20.5 21.5   .8033E-02
20879.4658   .4172E+05   8507.6560  7.5  8.5   .2397E-04
20879.3786   .2756E+03  11023.3110  8.5  8.5   .3628E-02
20879.3219   .5016E+05  11109.9500 20.5 20.5   .1994E-04
20879.2260   .3729E+05  11023.3110  8.5  9.5   .2682E-04
20879.2129   .3701E+05  11023.4770  7.5  8.5   .2702E-04
20879.1911   .1031E+02  19025.7320  8.5  8.5   .9698E-01
20879.1518   .4961E+02  19025.7320  8.5  9.5   .2016E-01
20878.7812   .2635E+02  18884.9290 23.5 22.5   .3795E-01
20878.7202   .4154E+05   8508.7410  6.5  7.5   .2408E-04
20877.6868   .7628E+03   8509.7730  7.5  7.5   .1311E-02
20877.3467   .4171E+05   8509.7730  7.5  8.5   .2398E-04
20877.1767   .3454E+02   8800.3600 15.5 14.5   .2895E-01
20877.0110   .6788E+02   9269.4800 21.5 22.5   .1473E-01
20876.7625   .2118E+05  15087.0540 15.5 16.5   .4721E-04
20876.6405   .2685E+05   9269.4800 21.5 21.5   .3724E-04
20876.6318   .2690E+05   9269.8600 22.5 22.5   .3718E-04
20876.4181   .3215E+05   6262.2100  7.5  8.5   .3110E-04
20876.3484   .3158E+02  15924.0840 11.5 12.5   .3166E-01
20876.2612   .6310E+02   9269.8600 22.5 21.5   .1585E-01
20876.0912   .2755E+03  11026.5980  8.5  8.5   .3629E-02
20876.0476   .6703E+01  15087.0540 15.5 15.5   .1492E+00
20875.9386   .3727E+05  11026.5980  8.5  9.5   .2683E-04
20875.8776   .3700E+05  11026.8140  7.5  8.5   .2703E-04
20875.6945   .2061E+05  16596.8280 19.5 20.5   .4851E-04
20874.9884   .6533E+03   6263.6400  8.5  8.5   .1531E-02
20874.8794   .2087E+05  15813.9910 17.5 18.5   .4791E-04
20874.7704   .3216E+05   6263.6400  8.5  9.5   .3109E-04
20874.6309   .3559E+01  16596.8280 19.5 19.5   .2810E+00
20874.2430   .2110E+05  15088.8590 14.5 15.5   .4740E-04
20874.0164   .2053E+05  16597.4440 18.5 19.5   .4872E-04
20873.9859   .4809E+01  15813.9910 17.5 17.5   .2079E+00
20873.6982   .3214E+05   6264.9300  7.5  8.5   .3111E-04
20873.5631   .1211E+02  18516.8770 19.5 20.5   .8259E-01
20872.9748   .2071E+05  16200.9460 18.5 19.5   .4828E-04
20872.8745   .2104E+05  15445.6260 16.5 17.5   .4753E-04
20872.7264   .5225E+01  18494.4950  4.5  5.5   .1914E+00
20872.7220   .6532E+03   6265.9100  8.5  8.5   .1531E-02
20872.5913   .2075E+05  15815.3870 16.5 17.5   .4820E-04
20872.4998   .3216E+05   6265.9100  8.5  9.5   .3110E-04
20872.0684   .5647E+01  15445.6260 16.5 16.5   .1771E+00
20871.9943   .4126E+01  16200.9460 18.5 18.5   .2424E+00
20870.6784   .2063E+05  16202.2630 17.5 18.5   .4848E-04
20870.5869   .2093E+05  15447.1090 15.5 16.5   .4778E-04
20869.9508   .6731E+02  12733.2840  5.5  6.5   .1486E-01
20869.8637   .1359E+01  24853.3310 26.5 25.5   .7359E+00
20869.4628   .1291E+03  24853.3310 26.5 26.5   .7749E-02
20869.0316   .1361E+03  10594.3500 19.5 20.5   .7347E-02
20868.9314   .5013E+05  10594.3500 19.5 19.5   .1995E-04
20868.6787   .5011E+05  10594.7000 20.5 20.5   .1996E-04
20868.5785   .1271E+03  10594.7000 20.5 19.5   .7869E-02
20868.2910   .3156E+02  15932.1410 11.5 12.5   .3169E-01
20868.2475   .8161E+02  16005.4420 25.5 26.5   .1225E-01
20868.0514   .6729E+02  12735.1850  5.5  6.5   .1486E-01
20868.0384   .2138E+05  14757.6860 14.5 15.5   .4678E-04
20868.0035   .8772E+02  15439.7480 24.5 25.5   .1140E-01
20867.5375   .6311E+05  16005.4420 25.5 25.5   .1585E-04
20867.5200   .2116E+05  15096.2970 15.5 16.5   .4725E-04
20867.4155   .8016E+01  14757.6860 14.5 14.5   .1248E+00
20867.3937   .6311E+05  15439.7480 24.5 24.5   .1584E-04
20866.8623   .6305E+05  16006.8280 26.5 26.5   .1586E-04
20866.8057   .6697E+01  15096.2970 15.5 15.5   .1493E+00
20866.6925   .6310E+05  15441.0590 25.5 25.5   .1585E-04
20866.5096   .2060E+05  16606.0150 19.5 20.5   .4855E-04
20866.1524   .7925E+02  16006.8280 26.5 25.5   .1262E-01
20866.1002   .1267E+03  20969.3620 15.5 15.5   .7891E-02
20866.0828   .8512E+02  15441.0590 25.5 24.5   .1175E-01
20865.9782   .2652E+01  20969.3620 15.5 16.5   .3771E+00
20865.9303   .1919E+01  10305.5220  3.5  4.5   .5212E+00
20865.6560   .1399E+02  29618.2590 36.5 36.5   .7149E-01
20865.4426   .3556E+01  16606.0150 19.5 19.5   .2812E+00
20865.3685   .2128E+05  14759.7340 13.5 14.5   .4700E-04
20865.3337   .1919E+01  10306.1210  3.5  4.5   .5212E+00
20865.2205   .2108E+05  15097.8800 14.5 15.5   .4744E-04
20865.1682   .9441E+02  14889.6830 23.5 24.5   .1059E-01
20864.5891   .6306E+05  14889.6830 23.5 23.5   .1586E-04
20864.4628   .3198E+01  20643.9110 15.5 14.5   .3127E+00
20864.3539   .1267E+03  20643.9110 15.5 15.5   .7892E-02
20864.2581   .7634E+02  16585.9980 26.5 27.5   .1310E-01
20864.1972   .2051E+05  16607.2610 18.5 19.5   .4877E-04
20863.9229   .6309E+05  14890.9250 24.5 24.5   .1585E-04
20863.6572   .6303E+05  16585.9980 26.5 26.5   .1587E-04
20863.3438   .9155E+02  14890.9250 24.5 23.5   .1092E-01
20863.1870   .2044E+05  17020.2320 20.5 21.5   .4893E-04
20862.7908   .6305E+05  16587.4650 27.5 27.5   .1586E-04
20862.6863   .1830E+02  17076.6050 15.5 16.5   .5465E-01
20862.2336   .3182E+00  17076.6050 15.5 15.5   .3143E+01
20862.1900   .7421E+02  16587.4650 27.5 26.5   .1348E-01
20862.0420   .3080E+01  17020.2320 20.5 20.5   .3246E+00
20861.7939   .2040E+05  17020.4790 19.5 20.5   .4902E-04
20861.6981   .2686E+05   9284.7900 22.5 22.5   .3723E-04
20861.3281   .6300E+02   9284.7900 22.5 21.5   .1587E-01
20861.3107   .6777E+02   9285.1800 21.5 22.5   .1475E-01
20861.1191   .1797E+01   6755.8400 10.5 11.5   .5564E+00
20860.9407   .2681E+05   9285.1800 21.5 21.5   .3729E-04
20859.2867   .2136E+05  14766.4360 14.5 15.5   .4682E-04
20859.2214   .1020E+03  14355.9680 22.5 23.5   .9806E-02
20858.8210   .6295E+05  14355.9680 22.5 22.5   .1589E-04
20858.6643   .8009E+01  14766.4360 14.5 14.5   .1249E+00
20858.0420   .6302E+05  14357.1490 23.5 23.5   .1587E-04
20857.7417   .1839E+02  17081.0980 14.5 15.5   .5438E-01
20857.6417   .9884E+02  14357.1490 23.5 22.5   .1012E-01
20856.9715   .2126E+05  14768.1310 13.5 14.5   .4704E-04
20856.7192   .2160E+05  14448.3250 13.5 14.5   .4629E-04
20856.2492   .5005E+05  10607.1300 20.5 20.5   .1998E-04
20856.1927   .9693E+01  14448.3250 13.5 13.5   .1032E+00
20856.1492   .1269E+03  10607.1300 20.5 19.5   .7879E-02
20856.0796   .1359E+03  10607.3000 19.5 20.5   .7356E-02
20855.9969   .7148E+02  17180.5930 27.5 28.5   .1399E-01
20855.9795   .5007E+05  10607.3000 19.5 19.5   .1997E-04
20855.9577   .6875E+02  19572.1110 17.5 17.5   .1454E-01
20855.5705   .6298E+05  16018.1210 26.5 26.5   .1588E-04
20855.5618   .8056E+00  19572.1110 17.5 16.5   .1241E+01
20855.3617   .6301E+05  17180.5930 27.5 27.5   .1587E-04
20855.1572   .8150E+02  16018.5330 25.5 26.5   .1227E-01
20855.0136   .6303E+05  15452.7350 25.5 25.5   .1586E-04
20854.8570   .7917E+02  16018.1210 26.5 25.5   .1263E-01
20854.8005   .1652E+05   4201.8000  9.5 10.5   .6052E-04
20854.7265   .2042E+05  17028.6940 20.5 21.5   .4897E-04
20854.6787   .3666E+02  23766.1930 27.5 26.5   .2728E-01
20854.6482   .8761E+02  15453.1030 24.5 25.5   .1141E-01
20854.4481   .6303E+05  16018.5330 25.5 25.5   .1587E-04
20854.4437   .6311E+05  17182.1490 28.5 28.5   .1584E-04
20854.4046   .8503E+02  15452.7350 25.5 24.5   .1176E-01
20854.0348   .6303E+05  15453.1030 24.5 24.5   .1587E-04
20853.9522   .3735E+02  15687.8920 10.5 11.5   .2677E-01
20853.9130   .2145E+05  14450.6030 12.5 13.5   .4663E-04
20853.8043   .6955E+02  17182.1490 28.5 27.5   .1438E-01
20853.7912   .2625E+03   4202.8100 10.5 10.5   .3810E-02
20853.6520   .1649E+05   4202.8100 10.5 11.5   .6063E-04
20853.5781   .3078E+01  17028.6940 20.5 20.5   .3249E+00
20852.6429   .4038E+02  18913.4270 20.5 20.5   .2476E-01
20852.3950   .2038E+05  17029.8770 19.5 20.5   .4907E-04
20852.1036   .6299E+05  16598.1530 27.5 27.5   .1588E-04
20852.0688   .6302E+05  14902.7830 24.5 24.5   .1587E-04
20851.7600   .3592E+03  10832.8900  7.5  7.5   .2784E-02
20851.7426   .9429E+02  14903.1080 23.5 24.5   .1061E-01
20851.6513   .7625E+02  16598.6060 26.5 27.5   .1311E-01
20851.5730   .3787E+05  10833.0760  6.5  7.5   .2641E-04
20851.5034   .7414E+02  16598.1530 27.5 26.5   .1349E-01
20851.4991   .3821E+05  10832.8900  7.5  8.5   .2617E-04
20851.4860   .9145E+02  14902.7830 24.5 23.5   .1094E-01
20851.3599   .1106E+03  13839.2820 21.5 22.5   .9044E-02
20851.1598   .6297E+05  14903.1080 23.5 23.5   .1588E-04
20851.1076   .6294E+05  13839.2820 21.5 21.5   .1589E-04
20851.0468   .6295E+05  16598.6060 26.5 26.5   .1589E-04
20850.8424   .6118E+02  29446.2410 36.5 37.5   .1635E-01
20850.7684   .1652E+05   4205.8300  9.5 10.5   .6054E-04
20850.2292   .6289E+05  13840.4090 22.5 22.5   .1590E-04
20850.0814   .2624E+03   4206.5200 10.5 10.5   .3811E-02
20849.9814   .1071E+03  13840.4090 22.5 21.5   .9335E-02
20849.9379   .1649E+05   4206.5200 10.5 11.5   .6065E-04
20849.8770   .4039E+02  18915.6530 19.5 19.5   .2476E-01
20849.1422   .3591E+03  10835.5070  7.5  7.5   .2785E-02
20848.9291   .3786E+05  10835.7210  6.5  7.5   .2641E-04
20848.9161   .3650E+02  23771.5410 26.5 25.5   .2740E-01
20848.8813   .3820E+05  10835.5070  7.5  8.5   .2618E-04
20848.5900   .2159E+05  14456.4520 13.5 14.5   .4633E-04
20848.3769   .1106E+02  18913.4270 20.5 21.5   .9040E-01
20848.2030   .4277E+05   8331.7560  5.5  6.5   .2338E-04
20848.0639   .9685E+01  14456.4520 13.5 13.5   .1032E+00
20848.0552   .6773E+01  27526.3250 32.5 33.5   .1477E+00
20846.8119   .3733E+02  15695.0310 10.5 11.5   .2679E-01
20846.6684   .1016E+04   8333.2930  6.5  6.5   .9838E-03
20846.3728   .5140E+02  19058.5490  7.5  8.5   .1946E-01
20846.3337   .4276E+05   8333.6280  5.5  6.5   .2338E-04
20846.2772   .4296E+05   8333.2930  6.5  7.5   .2328E-04
20846.2424   .2143E+05  14458.2750 12.5 13.5   .4666E-04
20846.1816   .6294E+05  14369.0090 23.5 23.5   .1589E-04
20845.8990   .1018E+03  14369.2890 22.5 23.5   .9819E-02
20845.7817   .9872E+02  14369.0090 23.5 22.5   .1013E-01
20845.4992   .6287E+05  14369.2890 22.5 22.5   .1591E-04
20845.4644   .7497E+00  19582.6040 16.5 17.5   .1334E+01
20845.0776   .1016E+04   8334.8840  6.5  6.5   .9840E-03
20845.0689   .6865E+02  19582.6040 16.5 16.5   .1457E-01
20844.6994   .1496E+03  10112.7300 18.5 19.5   .6682E-02
20844.6864   .4295E+05   8334.8840  6.5  7.5   .2328E-04
20844.6082   .6305E+05  17191.9850 28.5 28.5   .1586E-04
20844.3691   .5001E+05  10113.0600 19.5 19.5   .2000E-04
20844.3604   .4993E+05  10112.7300 18.5 18.5   .2003E-04
20844.1127   .7140E+02  17192.4790 27.5 28.5   .1401E-01
20844.1084   .2034E+05  17461.0800 21.5 22.5   .4916E-04
20844.0301   .1391E+03  10113.0600 19.5 18.5   .7189E-02
20843.9693   .6949E+02  17191.9850 28.5 27.5   .1439E-01
20843.4739   .6294E+05  17192.4790 27.5 27.5   .1589E-04
20843.1914   .2182E+05  14159.3310 12.5 13.5   .4582E-04
20843.0393   .2026E+05  17460.9220 20.5 21.5   .4936E-04
20842.9785   .1312E+03   3127.8400  5.5  6.5   .7622E-02
20842.9350   .1287E+03  25301.5430 26.5 26.5   .7768E-02
20842.8785   .2683E+01  17461.0800 21.5 21.5   .3727E+00
20842.7656   .1189E+02  14159.3310 12.5 12.5   .8412E-01
20842.5918   .6713E+02  17788.3450 28.5 29.5   .1490E-01
20842.4918   .1213E+01  25301.5430 26.5 27.5   .8244E+00
20842.4093   .2677E+05   8726.8400 21.5 21.5   .3736E-04
20842.3615   .7372E+02   8726.8900 20.5 21.5   .1356E-01
20842.0399   .6820E+02   8726.8400 21.5 20.5   .1466E-01
20841.9878   .2678E+05   8726.8900 20.5 20.5   .3734E-04
20841.9791   .1312E+03   3128.8400  5.5  6.5   .7623E-02
20841.9226   .6304E+05  17788.3450 28.5 28.5   .1586E-04
20841.7531   .1105E+02  18920.0500 20.5 21.5   .9046E-01
20841.7488   .1204E+03  13340.2720 20.5 21.5   .8307E-02
20841.3100   .6277E+05  13340.2720 20.5 20.5   .1593E-04
20840.9407   .6293E+05  17789.9960 29.5 29.5   .1589E-04
20840.6670   .6288E+05  13341.3510 21.5 21.5   .1590E-04
20840.2716   .6539E+02  17789.9960 29.5 28.5   .1529E-01
20840.2673   .2168E+05  14161.8320 11.5 12.5   .4613E-04
20840.2282   .1163E+03  13341.3510 21.5 20.5   .8596E-02
20839.6721   .1216E+02  18865.0200  7.5  7.5   .8226E-01
20839.6374   .4728E+02  18865.0200  7.5  8.5   .2115E-01
20839.5505   .1261E+03  20668.8230 14.5 14.5   .7929E-02
20839.4419   .2929E+01  20668.8230 14.5 15.5   .3414E+00
20838.5731   .3579E+01  20358.3850 14.5 13.5   .2794E+00
20838.5254   .6282E+05  13852.1150 22.5 22.5   .1592E-04
20838.4776   .1258E+03  20358.3850 14.5 14.5   .7948E-02
20838.2908   .1104E+03  13852.3490 21.5 22.5   .9055E-02
20838.2734   .1070E+03  13852.1150 22.5 21.5   .9345E-02
20838.0389   .6286E+05  13852.3490 21.5 21.5   .1591E-04
20837.8912   .3286E+05   6055.0200  6.5  7.5   .3043E-04
20837.2832   .2950E+02  17839.4170 11.5 12.5   .3390E-01
20836.9661   .1917E+01  17839.4170 11.5 11.5   .5217E+00
20836.7403   .2033E+05  17468.4450 21.5 22.5   .4920E-04
20836.2278   .8350E+03   6056.6800  7.5  7.5   .1198E-02
20835.9195   .3285E+05   6056.6800  7.5  8.5   .3044E-04
20835.8587   .3286E+05   6057.0500  6.5  7.5   .3043E-04
20835.7849   .2181E+05  14166.7370 12.5 13.5   .4586E-04
20835.5157   .2681E+01  17468.4450 21.5 21.5   .3730E+00
20835.3594   .1188E+02  14166.7370 12.5 12.5   .8418E-01
20834.4302   .8348E+03   6058.4800  7.5  7.5   .1198E-02
20834.3911   .2024E+05  17469.5690 20.5 21.5   .4940E-04
20834.1219   .3284E+05   6058.4800  7.5  8.5   .3045E-04
20833.9005   .6810E+01  27540.2030 31.5 32.5   .1468E+00
20833.3882   .2166E+05  14168.7080 11.5 12.5   .4616E-04
20832.8498   .1495E+03  10124.5800 18.5 19.5   .6690E-02
20832.8194   .4995E+05  10124.6100 19.5 19.5   .2002E-04
20832.5112   .4987E+05  10124.5800 18.5 18.5   .2005E-04
20832.4808   .1389E+03  10124.6100 19.5 18.5   .7197E-02
20832.2290   .6287E+05  17798.7100 29.5 29.5   .1591E-04
20832.0815   .8981E+00  17045.0730  7.5  8.5   .1113E+01
20831.6951   .6706E+02  17799.2430 28.5 29.5   .1491E-01
20831.5562   .6534E+02  17798.7100 29.5 28.5   .1531E-01
20831.1395   .4411E+03   5484.6100  3.5  4.5   .2267E-02
20831.0223   .6297E+05  17799.2430 28.5 28.5   .1588E-04
20830.9485   .4411E+03   5484.8000  3.5  4.5   .2267E-02
20830.6534   .1319E+03  12859.5470 19.5 20.5   .7581E-02
20830.4798   .2124E+01   6498.4500  9.5 10.5   .4708E+00
20830.4537   .6273E+05  12859.5470 19.5 19.5   .1594E-04
20830.0675   .1034E+01  26420.3970 34.5 34.5   .9673E+00
20829.6161   .6270E+05  12860.5850 20.5 20.5   .1595E-04
20829.4165   .1272E+03  12860.5850 20.5 19.5   .7863E-02
20829.2559   .6281E+05  13352.7650 21.5 21.5   .1592E-04
20829.0693   .1202E+03  13352.9510 20.5 21.5   .8317E-02
20828.8133   .1162E+03  13352.7650 21.5 20.5   .8606E-02
20828.6310   .6269E+05  13352.9510 20.5 20.5   .1595E-04
20828.5312   .4478E+02  15472.0230  9.5 10.5   .2233E-01
20828.4878   .2673E+05   8740.7600 21.5 21.5   .3741E-04
20828.1190   .6811E+02   8740.7600 21.5 20.5   .1468E-01
20827.7979   .7362E+02   8741.4500 20.5 21.5   .1358E-01
20827.7892   .2210E+05  13891.0490 11.5 12.5   .4524E-04
20827.4724   .1480E+02  13891.0490 11.5 11.5   .6758E-01
20827.4290   .2674E+05   8741.4500 20.5 20.5   .3740E-04
20826.9431   .4105E+03   7883.0960  2.5  3.5   .2436E-02
20826.7435   .4105E+03   7883.2950  2.5  3.5   .2436E-02
20826.1838   .1300E+01  25318.2950 27.5 26.5   .7692E+00
20826.0580   .9709E+02  12617.9500  4.5  5.5   .1030E-01
20825.7413   .1286E+03  25318.2950 27.5 27.5   .7778E-02
20824.7522   .9708E+02  12619.2550  4.5  5.5   .1030E-01
20824.7479   .2193E+05  13893.7730 10.5 11.5   .4559E-04
20824.1797   .4866E+03  10665.6890  6.5  6.5   .2055E-02
20823.9758   .3901E+05  10665.8930  5.5  6.5   .2564E-04
20823.7893   .3955E+05  10665.6890  6.5  7.5   .2528E-04
20823.5030   .2993E+02  17852.8800 10.5 11.5   .3342E-01
20823.2254   .6322E+02  18408.2990 29.5 30.5   .1582E-01
20822.5228   .6296E+05  18408.2990 29.5 29.5   .1588E-04
20822.3624   .4475E+02  15478.1910  9.5 10.5   .2235E-01
20822.1802   .4865E+03  10667.6910  6.5  6.5   .2056E-02
20821.9634   .3900E+05  10667.9080  5.5  6.5   .2564E-04
20821.7899   .3954E+05  10667.6910  6.5  7.5   .2529E-04
20821.4733   .6292E+05  18410.0540 30.5 30.5   .1589E-04
20821.1698   .2209E+05  13897.6670 11.5 12.5   .4527E-04
20820.8532   .1479E+02  13897.6670 11.5 11.5   .6762E-01
20820.7665   .6166E+02  18410.0540 30.5 29.5   .1622E-01
20820.5801   .1649E+03   9651.4100 17.5 18.5   .6063E-02
20820.3416   .4975E+05   9651.4100 17.5 17.5   .2010E-04
20820.1985   .4981E+05   9651.7900 18.5 18.5   .2008E-04
20819.9990   .5769E+01  18410.9230  3.5  4.5   .1733E+00
20819.9600   .1530E+03   9651.7900 18.5 17.5   .6534E-02
20819.1276   .5984E+02  29747.6880 37.5 38.5   .1671E-01
20818.7851   .1449E+03  12397.6940 18.5 19.5   .6903E-02
20818.7070   .2192E+05  13899.8120 10.5 11.5   .4562E-04
20818.6117   .6263E+05  12871.5900 20.5 20.5   .1597E-04
20818.4729   .1318E+03  12871.7260 19.5 20.5   .7589E-02
20818.4079   .1271E+03  12871.5900 20.5 19.5   .7871E-02
20818.3862   .6255E+05  12397.6940 18.5 18.5   .1599E-04
20818.2735   .6266E+05  12871.7260 19.5 19.5   .1596E-04
20817.7836   .6265E+05  12398.6970 19.5 19.5   .1596E-04
20817.3848   .1397E+03  12398.6970 19.5 18.5   .7158E-02
20817.3805   .2017E+05  17918.8330 22.5 23.5   .4957E-04
20816.6740   .2010E+05  17918.2320 21.5 22.5   .4975E-04
20816.0758   .2345E+01  17918.8330 22.5 22.5   .4264E+00
20815.9675   .4434E+05   8181.6530  4.5  5.5   .2256E-04
20815.2480   .2759E+01  10233.1600  2.5  3.5   .3624E+00
20815.2220   .3664E+02  23290.7460 26.5 25.5   .2730E-01
20814.9490   .2759E+01  10233.4630  2.5  3.5   .3624E+00
20814.6023   .4433E+05   8183.0190  4.5  5.5   .2256E-04
20814.1776   .6287E+05  18417.3470 30.5 30.5   .1590E-04
20814.1776   .1421E+04   8183.4430  5.5  5.5   .7036E-03
20813.8483   .4474E+05   8183.4430  5.5  6.5   .2235E-04
20813.6056   .6316E+02  18417.9200 29.5 30.5   .1583E-01
20813.4756   .6161E+02  18417.3470 30.5 29.5   .1623E-01
20813.0466   .1421E+04   8184.5740  5.5  5.5   .7037E-03
20812.9036   .6290E+05  18417.9200 29.5 29.5   .1590E-04
20812.7173   .4474E+05   8184.5740  5.5  6.5   .2235E-04
20812.0544   .1125E+01  21514.1260 29.5 28.5   .8885E+00
20811.8638   .4035E+01  20090.2650 13.5 12.5   .2479E+00
20811.7815   .1249E+03  20090.2650 13.5 13.5   .8006E-02
20811.5995   .1252E+03  20385.3580 13.5 13.5   .7987E-02
20811.5345   .2016E+05  17924.6790 22.5 23.5   .4960E-04
20811.5042   .3256E+01  20385.3580 13.5 14.5   .3072E+00
20811.1013   .5567E+02  29994.2880 38.5 39.5   .1796E-01
20810.8067   .2247E+05  13643.8070 10.5 11.5   .4451E-04
20810.7201   .1126E+01  21514.9300 28.5 27.5   .8881E+00
20810.5988   .1881E+02  13643.8070 10.5 10.5   .5318E-01
20810.2262   .2344E+01  17924.6790 22.5 22.5   .4266E+00
20810.1439   .3035E+01  27285.6720 33.5 33.5   .3295E+00
20809.8017   .1648E+03   9662.1900 17.5 18.5   .6069E-02
20809.7584   .4976E+05   9662.2300 18.5 18.5   .2010E-04
20809.6501   .1674E+05   3934.4700  8.5  9.5   .5975E-04
20809.5592   .4970E+05   9662.1900 17.5 17.5   .2012E-04
20809.5202   .1529E+03   9662.2300 18.5 17.5   .6541E-02
20809.4899   .2136E+02  21657.1230 26.5 25.5   .4681E-01
20809.2690   .3645E+02  23296.2760 25.5 24.5   .2744E-01
20809.1563   .2009E+05  17925.7510 21.5 22.5   .4979E-04
20808.5889   .8042E+02   8204.2600 19.5 20.5   .1243E-01
20808.4677   .1033E+01  26442.3750 35.5 35.5   .9676E+00
20808.4114   .3181E+03   3935.7100  9.5  9.5   .3143E-02
20808.2511   .2663E+05   8204.6000 20.5 20.5   .3755E-04
20808.2295   .1672E+05   3935.7100  9.5 10.5   .5981E-04
20808.2078   .2664E+05   8204.2600 19.5 19.5   .3754E-04
20807.8700   .7422E+02   8204.6000 20.5 19.5   .1347E-01
20807.6448   .2219E+05  13646.7640  9.5 10.5   .4506E-04
20807.2897   .6259E+05  12409.1920 19.5 19.5   .1598E-04
20807.2031   .1447E+03  12409.2760 18.5 19.5   .6910E-02
20806.8870   .1396E+03  12409.1920 19.5 18.5   .7165E-02
20806.8047   .6248E+05  12409.2760 18.5 18.5   .1600E-04
20806.3976   .2131E+02  21659.4870 25.5 24.5   .4693E-01
20806.2807   .1673E+05   3937.8400  8.5  9.5   .5977E-04
20805.9516   .1602E+03  11955.2670 17.5 18.5   .6241E-02
20805.5749   .6240E+05  11955.2670 17.5 17.5   .1603E-04
20805.3801   .3180E+03   3938.7400  9.5  9.5   .3144E-02
20805.1982   .1671E+05   3938.7400  9.5 10.5   .5983E-04
20805.0121   .2245E+05  13649.5990 10.5 11.5   .4454E-04
20804.9774   .6247E+05  11956.2430 18.5 18.5   .1601E-04
20804.8086   .1880E+02  13649.5990 10.5 10.5   .5321E-01
20804.5964   .1542E+03  11956.2430 18.5 17.5   .6484E-02
20803.2760   .4935E+02  18901.4130  6.5  7.5   .2026E-01
20803.1115   .1013E+02  19335.0950 21.5 22.5   .9871E-01
20802.4579   .2218E+05  13651.9510  9.5 10.5   .4509E-04
20802.4276   .6837E+02  19236.5600 16.5 16.5   .1463E-01
20802.1289   .1453E+02  18723.1640  6.5  6.5   .6883E-01
20802.0986   .4449E+02  18723.1640  6.5  7.5   .2248E-01
20802.0424   .8917E+00  19236.5600 16.5 15.5   .1121E+01
20800.4886   .3382E+05   5873.1200  5.5  6.5   .2957E-04
20800.4453   .5486E+02  15276.7450  8.5  9.5   .1823E-01
20798.8701   .3381E+05   5874.7400  5.5  6.5   .2957E-04
20798.7230   .1013E+02  19339.4870 21.5 22.5   .9875E-01
20798.4893   .1107E+04   5875.1200  6.5  6.5   .9035E-03
20798.1692   .3381E+05   5875.1200  6.5  7.5   .2958E-04
20797.1913   .1107E+04   5876.4200  6.5  6.5   .9036E-03
20797.1178   .1836E+03   9210.8200 16.5 17.5   .5447E-02
20796.9967   .5970E+02  19039.4190 30.5 31.5   .1675E-01
20796.9491   .4962E+05   9210.8200 16.5 16.5   .2015E-04
20796.8712   .3381E+05   5876.4200  6.5  7.5   .2958E-04
20796.8496   .4964E+05   9211.0900 17.5 17.5   .2014E-04
20796.7674   .6949E+03  10521.9340  5.5  5.5   .1439E-02
20796.6808   .1693E+03   9211.0900 17.5 16.5   .5907E-02
20796.6289   .2553E+01   6265.9100  8.5  9.5   .3917E+00
20796.5467   .4055E+05  10522.1560  4.5  5.5   .2466E-04
20796.2612   .6277E+05  19039.4190 30.5 30.5   .1593E-04
20796.2223   .4130E+05  10521.9340  5.5  6.5   .2421E-04
20796.0709   .1282E+03  25769.3620 27.5 27.5   .7800E-02
20795.5821   .1163E+01  25769.3620 27.5 28.5   .8597E+00
20795.3182   .2660E+05   8217.5300 20.5 20.5   .3760E-04
20795.3139   .6949E+03  10523.3890  5.5  5.5   .1439E-02
20795.2663   .5483E+02  15281.9250  8.5  9.5   .1824E-01
20795.1322   .6279E+05  19041.2830 31.5 31.5   .1593E-04
20795.0889   .4054E+05  10523.6140  4.5  5.5   .2467E-04
20795.0803   .8032E+02   8217.7700 19.5 20.5   .1245E-01
20795.0760   .6241E+05  11966.1460 18.5 18.5   .1602E-04
20795.0457   .1601E+03  11966.1750 17.5 18.5   .6248E-02
20794.9419   .7413E+02   8217.5300 20.5 19.5   .1349E-01
20794.7689   .4130E+05  10523.3890  5.5  6.5   .2421E-04
20794.6997   .2661E+05   8217.7700 19.5 19.5   .3758E-04
20794.6953   .1541E+03  11966.1460 18.5 17.5   .6490E-02
20794.6651   .6234E+05  11966.1750 17.5 17.5   .1604E-04
20794.3969   .5816E+02  19041.2830 31.5 30.5   .1719E-01
20792.5891   .1781E+03  11532.7990 16.5 17.5   .5615E-02
20792.4940   .2288E+05  13417.9170  9.5 10.5   .4370E-04
20792.4118   .2449E+02  13417.9170  9.5  9.5   .4084E-01
20792.2604   .6230E+05  11532.7990 16.5 16.5   .1605E-04
20791.6334   .6232E+05  11533.7550 17.5 17.5   .1605E-04
20791.3048   .1712E+03  11533.7550 17.5 16.5   .5842E-02
20790.6260   .8268E+00  19248.3590 15.5 16.5   .1209E+01
20790.2455   .6819E+02  19248.3590 15.5 15.5   .1467E-01
20789.5840   .6276E+05  19046.8340 31.5 31.5   .1593E-04
20789.1993   .2258E+05  13421.1280  8.5  9.5   .4428E-04
20788.9702   .5965E+02  19047.4460 30.5 31.5   .1676E-01
20788.8448   .5813E+02  19046.8340 31.5 30.5   .1720E-01
20788.2353   .6272E+05  19047.4460 30.5 30.5   .1594E-04
20787.5437   .2287E+05  13422.8690  9.5 10.5   .4372E-04
20787.4616   .2447E+02  13422.8690  9.5  9.5   .4086E-01
20787.4486   .1834E+03   9220.4900 16.5 17.5   .5452E-02
20787.3319   .4959E+05   9220.6100 17.5 17.5   .2016E-04
20787.2800   .4957E+05   9220.4900 16.5 16.5   .2017E-04
20787.1590   .1691E+03   9220.6100 17.5 16.5   .5912E-02
20784.9808   .4597E+01  19839.7600 12.5 11.5   .2176E+00
20784.9117   .1238E+03  19839.7600 12.5 12.5   .8079E-02
20784.8598   .2257E+05  13425.4690  8.5  9.5   .4430E-04
20784.7216   .4663E+05   8056.1500  3.5  4.5   .2145E-04
20783.7839   .4662E+05   8057.0840  3.5  4.5   .2145E-04
20782.9068   .1240E+03  20119.2180 12.5 12.5   .8062E-02
20782.8290   .3642E+01  20119.2180 12.5 13.5   .2745E+00
20782.5482   .2131E+04   8058.3210  4.5  4.5   .4693E-03
20782.4186   .1779E+03  11542.9730 16.5 17.5   .5620E-02
20782.3884   .6226E+05  11543.0010 17.5 17.5   .1606E-04
20782.0860   .6224E+05  11542.9730 16.5 16.5   .1607E-04
20782.0600   .1710E+03  11543.0010 17.5 16.5   .5847E-02
20782.0384   .4724E+05   8058.3210  4.5  5.5   .2117E-04
20781.8052   .2131E+04   8059.0640  4.5  4.5   .4693E-03
20781.7663   .2002E+05  18392.8980 23.5 24.5   .4994E-04
20781.7274   .1501E+03  12525.2220  3.5  4.5   .6660E-02
20781.4639   .1996E+05  18391.8130 22.5 23.5   .5009E-04
20781.2954   .4724E+05   8059.0640  4.5  5.5   .2117E-04
20780.9239   .1501E+03  12526.0270  3.5  4.5   .6661E-02
20780.3797   .2052E+01  18392.8980 23.5 23.5   .4873E+00
20779.1098   .1995E+03  11130.7990 15.5 16.5   .5013E-02
20778.8723   .6212E+05  11130.7990 15.5 15.5   .1610E-04
20778.2591   .2131E+01  18391.8130 22.5 22.5   .4692E+00
20778.1684   .6221E+05  11131.7420 16.5 16.5   .1607E-04
20777.9265   .1915E+03  11131.7420 16.5 15.5   .5222E-02
20777.9136   .2002E+05  18396.7530 23.5 24.5   .4996E-04
20777.8013   .2129E+01  18392.8980 23.5 23.5   .4698E+00
20776.5793   .1946E+03   2992.3400  4.5  5.5   .5139E-02
20776.5275   .2051E+01  18396.7530 23.5 23.5   .4875E+00
20775.9101   .1946E+03   2993.0100  4.5  5.5   .5139E-02
20775.8108   .8835E+02   7702.3700 18.5 19.5   .1132E-01
20775.6424   .3028E+01  27320.8290 34.5 34.5   .3303E+00
20775.6165   .3658E+02  22825.0390 25.5 24.5   .2734E-01
20775.5603   .2656E+05   7702.6200 19.5 19.5   .3765E-04
20775.5042   .1995E+05  18397.7760 22.5 23.5   .5012E-04
20775.4783   .2651E+05   7702.3700 18.5 18.5   .3772E-04
20775.2279   .8099E+02   7702.6200 19.5 18.5   .1235E-01
20775.0336   .2884E+02  17613.0540 10.5 11.5   .3467E-01
20774.7358   .2207E+01  17613.0540 10.5 10.5   .4531E+00
20774.5113   .2055E+03   8791.6100 15.5 16.5   .4867E-02
20774.2997   .4944E+05   8791.6100 15.5 15.5   .2023E-04
20774.2005   .4951E+05   8791.9200 16.5 16.5   .2020E-04
20774.0062   .1256E+01  25791.4250 28.5 27.5   .7962E+00
20773.9889   .1888E+03   8791.9200 16.5 15.5   .5296E-02
20773.8120   .1438E+01  24738.5820 29.5 30.5   .6954E+00
20773.5184   .1282E+03  25791.4250 28.5 28.5   .7803E-02
20773.1343   .3288E+02  13213.6670  8.5  8.5   .3042E-01
20773.0825   .2339E+05  13213.6670  8.5  9.5   .4275E-04
20772.8062   .1799E+02  16761.7930 14.5 15.5   .5559E-01
20772.3789   .3540E+00  16761.7930 14.5 14.5   .2825E+01
20771.6193   .9310E+03   7833.6010  1.5  2.5   .1074E-02
20771.5675   .9310E+03   7833.6520  1.5  2.5   .1074E-02
20771.0195   .4009E+02  18508.6020 19.5 19.5   .2495E-01
20770.8598   .8298E+03   5406.6300  2.5  3.5   .1205E-02
20770.7907   .8298E+03   5406.7000  2.5  3.5   .1205E-02
20770.5534   .5874E+01  18346.2100  2.5  3.5   .1702E+00
20770.0312   .6882E+02  15102.3000  7.5  8.5   .1453E-01
20769.8673   .5728E+00  22830.7880 24.5 24.5   .1746E+01
20769.7163   .1993E+03  11140.1920 15.5 16.5   .5017E-02
20769.6300   .6216E+05  11140.2820 16.5 16.5   .1609E-04
20769.6300   .1069E+04  10401.8240  4.5  4.5   .9354E-03
20769.6300   .2300E+05  13217.1720  7.5  8.5   .4348E-04
20769.4789   .6206E+05  11140.1920 15.5 15.5   .1611E-04
20769.4358   .3637E+02  22830.7880 24.5 23.5   .2749E-01
20769.3883   .1914E+03  11140.2820 16.5 15.5   .5226E-02
20769.3840   .4266E+05  10402.0710  3.5  4.5   .2344E-04
20769.0129   .3286E+02  13217.7900  8.5  8.5   .3043E-01
20768.9612   .2339E+05  13217.7900  8.5  9.5   .4276E-04
20768.8921   .4383E+05  10401.8240  4.5  5.5   .2281E-04
20768.6462   .1069E+04  10402.8080  4.5  4.5   .9355E-03
20768.4003   .4265E+05  10403.0520  3.5  4.5   .2345E-04
20767.9818   .1441E+01  24743.6920 28.5 29.5   .6938E+00
20767.9084   .4383E+05  10402.8080  4.5  5.5   .2282E-04
20767.5461   .1810E+02  16766.6250 13.5 14.5   .5523E-01
20767.4382   .4010E+02  18511.6620 18.5 18.5   .2494E-01
20767.0931   .9814E+00  16200.9460 18.5 19.5   .1019E+01
20766.8860   .1753E+02  18600.3370  5.5  5.5   .5706E-01
20766.8645   .4090E+02  18600.3370  5.5  6.5   .2445E-01
20766.1053   .2299E+05  13220.6970  7.5  8.5   .4349E-04
20765.8810   .1700E+05   3692.8600  7.5  8.5   .5881E-04
20765.8206   .6880E+02  15106.5080  7.5  8.5   .1454E-01
20765.7602   .2053E+03   8800.3600 15.5 16.5   .4871E-02
20765.6308   .4947E+05   8800.4900 16.5 16.5   .2021E-04
20765.5488   .4939E+05   8800.3600 15.5 15.5   .2025E-04
20765.4453   .2253E+03  10749.7530 14.5 15.5   .4439E-02
20765.4194   .1887E+03   8800.4900 16.5 15.5   .5301E-02
20765.4065   .6204E+05  10749.7530 14.5 14.5   .1612E-04
20765.3289   .9818E+00  16202.2630 17.5 18.5   .1019E+01
20765.0054   .3730E+01  10184.8210  1.5  2.5   .2681E+00
20764.9062   .3730E+01  10184.9220  1.5  2.5   .2681E+00
20764.5094   .6203E+05  10750.6910 15.5 15.5   .1612E-04
20764.4706   .2156E+03  10750.6910 15.5 14.5   .4638E-02
20764.4188   .3949E+03   3694.3200  8.5  8.5   .2532E-02
20764.4102   .3504E+05   5716.6900  4.5  5.5   .2854E-04
20764.2118   .1697E+05   3694.3200  8.5  9.5   .5892E-04
20763.6900   .2653E+05   7714.4900 19.5 19.5   .3770E-04
20763.3580   .8090E+02   7714.4900 19.5 18.5   .1236E-01
20763.3580   .8824E+02   7714.8200 18.5 19.5   .1133E-01
20763.1682   .3504E+05   5717.9300  4.5  5.5   .2854E-04
20763.1078   .1700E+05   3695.6300  7.5  8.5   .5882E-04
20763.0302   .2648E+05   7714.8200 18.5 18.5   .3776E-04
20762.9009   .5652E+02  19680.5720 31.5 32.5   .1769E-01
20762.1333   .6259E+05  19680.5720 31.5 31.5   .1598E-04
20761.9910   .1536E+04   5719.1100  5.5  5.5   .6509E-03
20761.9393   .3948E+03   3696.8000  8.5  8.5   .2533E-02
20761.7280   .1697E+05   3696.8000  8.5  9.5   .5893E-04
20761.5599   .3512E+05   5719.1100  5.5  6.5   .2848E-04
20761.3788   .4683E+02  18763.9140  5.5  6.5   .2135E-01
20761.1115   .1536E+04   5719.9900  5.5  5.5   .6509E-03
20760.9218   .6253E+05  19682.5550 32.5 32.5   .1599E-04
20760.6804   .3512E+05   5719.9900  5.5  6.5   .2848E-04
20760.1501   .5501E+02  19682.5550 32.5 31.5   .1818E-01
20760.0251   .2932E+02  17627.7650  9.5 10.5   .3411E-01
20759.9604   .3136E+01   6058.4800  7.5  8.5   .3189E+00
20758.5120   .5286E+01  19607.0870 11.5 10.5   .1892E+00
20758.4517   .1228E+03  19607.0870 11.5 11.5   .8141E-02
20757.5337   .1068E+01  16898.2480  6.5  7.5   .9368E+00
20757.4647   .6251E+05  19686.0120 32.5 32.5   .1600E-04
20756.8656   .2251E+03  10758.3350 14.5 15.5   .4443E-02
20756.8269   .6199E+05  10758.3350 14.5 14.5   .1613E-04
20756.8139   .5648E+02  19686.6630 31.5 32.5   .1770E-01
20756.7105   .6199E+05  10758.4890 15.5 15.5   .1613E-04
20756.6933   .5499E+02  19686.0120 32.5 31.5   .1819E-01
20756.6717   .2154E+03  10758.4890 15.5 14.5   .4642E-02
20756.0425   .6255E+05  19686.6630 31.5 31.5   .1599E-04
20755.1936   .2427E+02  19385.0360 24.5 23.5   .4120E-01
20754.7111   .4981E+05   7955.3300  2.5  3.5   .2008E-04
20754.1294   .4980E+05   7955.9090  2.5  3.5   .2008E-04
20754.0777   .1228E+03  19870.6630 11.5 11.5   .8144E-02
20754.0088   .4115E+01  19870.6630 11.5 12.5   .2430E+00
20753.8278   .2427E+02  19386.4010 24.5 23.5   .4120E-01
20752.9705   .4594E+02  13031.3250  7.5  7.5   .2177E-01
20752.7680   .2404E+05  13031.3250  7.5  8.5   .4159E-04
20752.4880   .2318E+03   8394.1900 14.5 15.5   .4314E-02
20752.4320   .4922E+05   8394.1900 14.5 14.5   .2032E-04
20752.4191   .6710E+01  27080.9270 31.5 32.5   .1490E+00
20751.9797   .4933E+05   8394.7000 15.5 15.5   .2027E-04
20751.9366   .2565E+03  10390.1240 13.5 14.5   .3898E-02
20751.9194   .2119E+03   8394.7000 15.5 14.5   .4719E-02
20751.9065   .3525E+04   7958.1320  3.5  3.5   .2837E-03
20751.8677   .6182E+05  10390.1240 13.5 13.5   .1618E-04
20751.4757   .3525E+04   7958.5630  3.5  3.5   .2837E-03
20751.0881   .5096E+05   7958.1320  3.5  4.5   .1962E-04
20750.9933   .6182E+05  10391.0650 14.5 14.5   .1618E-04
20750.9244   .2444E+03  10391.0650 14.5 13.5   .4092E-02
20750.6573   .5096E+05   7958.5630  3.5  4.5   .1962E-04
20749.8735   .6777E+02  18918.6980 15.5 15.5   .1476E-01
20749.6409   .4592E+02  13034.6510  7.5  7.5   .2177E-01
20749.5031   .9932E+00  18918.6980 15.5 14.5   .1007E+01
20749.4428   .2404E+05  13034.6510  7.5  8.5   .4160E-04
20749.1069   .2355E+05  13035.1860  6.5  7.5   .4246E-04
20748.1251   .1573E+01  28001.9260 36.5 35.5   .6357E+00
20746.3512   .2355E+05  13037.9440  6.5  7.5   .4247E-04
20744.5905   .2316E+03   8402.0900 14.5 15.5   .4317E-02
20744.5302   .4918E+05   8402.0900 14.5 14.5   .2033E-04
20744.4915   .4929E+05   8402.1900 15.5 15.5   .2029E-04
20744.4312   .2118E+03   8402.1900 15.5 14.5   .4723E-02
20744.2418   .9731E+02   7221.6400 17.5 18.5   .1028E-01
20744.1859   .2563E+03  10397.8760 13.5 14.5   .3901E-02
20744.1514   .9326E+01  19773.0990 22.5 23.5   .1072E+00
20744.1127   .6177E+05  10397.8760 13.5 13.5   .1619E-04
20743.9578   .6177E+05  10398.1010 14.5 14.5   .1619E-04
20743.9190   .2643E+05   7221.9600 18.5 18.5   .3783E-04
20743.9018   .2646E+05   7221.6400 17.5 17.5   .3779E-04
20743.8889   .2442E+03  10398.1010 14.5 13.5   .4095E-02
20743.5790   .8904E+02   7221.9600 18.5 17.5   .1123E-01
20742.8860   .1840E+04  10305.5220  3.5  3.5   .5435E-03
20742.6364   .9325E+01  19774.6120 22.5 23.5   .1072E+00
20742.5977   .4569E+05  10305.8110  2.5  3.5   .2189E-04
20742.2878   .1840E+04  10306.1210  3.5  3.5   .5435E-03
20742.0081   .4568E+05  10306.4030  2.5  3.5   .2189E-04
20741.8876   .4774E+05  10305.5220  3.5  4.5   .2095E-04
20741.7714   .1278E+03  26242.4460 28.5 28.5   .7827E-02
20741.6294   .3046E+02   9220.4900 16.5 15.5   .3283E-01
20741.2852   .4773E+05  10306.1210  3.5  4.5   .2095E-04
20741.2378   .1129E+01  26242.4460 28.5 29.5   .8858E+00
20739.5081   .6738E+01  27093.5290 30.5 31.5   .1484E+00
20738.8886   .2948E+03  10052.3510 12.5 13.5   .3392E-02
20738.8671   .6162E+05  10052.3510 12.5 12.5   .1623E-04
20738.8240   .1565E+01  28010.5960 35.5 34.5   .6388E+00
20737.9335   .6159E+05  10053.3050 13.5 13.5   .1624E-04
20737.9163   .2803E+03  10053.3050 13.5 12.5   .3567E-02
20737.5808   .8862E+02  14948.9030  6.5  7.5   .1128E-01
20737.2926   .2509E+03  12455.0810  2.5  3.5   .3985E-02
20736.8797   .2509E+03  12455.4940  2.5  3.5   .3985E-02
20736.8496   .9151E+00  18931.7210 14.5 15.5   .1093E+01
20736.4796   .6768E+02  18931.7210 14.5 14.5   .1477E-01
20736.2302   .7004E+01  29747.6880 37.5 36.5   .1428E+00
20735.9807   .1980E+05  18880.9990 23.5 24.5   .5051E-04
20735.8345   .1984E+05  18882.6100 24.5 25.5   .5040E-04
20735.6022   .3650E+02  22370.5630 24.5 23.5   .2739E-01
20734.4927   .1984E+05  18883.9500 24.5 25.5   .5041E-04
20734.3680   .1801E+01  18882.6100 24.5 24.5   .5552E+00
20734.3035   .8859E+02  14952.1810  6.5  7.5   .1129E-01
20734.2691   .2136E+02  18496.6520  4.5  4.5   .4683E-01
20734.2519   .3642E+02  18496.6520  4.5  5.5   .2746E-01
20733.1511   .9721E+02   7232.7300 17.5 18.5   .1029E-01
20733.1511   .2641E+05   7232.7300 18.5 18.5   .3787E-04
20733.0307   .1801E+01  18883.9500 24.5 24.5   .5553E+00
20732.9705   .6144E+01  19392.4630 10.5  9.5   .1628E+00
20732.9189   .1214E+03  19392.4630 10.5 10.5   .8241E-02
20732.8114   .8895E+02   7232.7300 18.5 17.5   .1124E-01
20732.8114   .2643E+05   7232.7300 17.5 17.5   .3783E-04
20732.1063   .6750E+02  12871.1290  6.5  6.5   .1481E-01
20732.0504   .1979E+05  18884.9290 23.5 24.5   .5053E-04
20731.9687   .2946E+03  10059.2700 12.5 13.5   .3394E-02
20731.9515   .6158E+05  10059.2700 12.5 12.5   .1624E-04
20731.7366   .2491E+05  12871.1290  6.5  7.5   .4015E-04
20731.6979   .4912E+05   8019.0800 14.5 14.5   .2036E-04
20731.6678   .6155E+05  10059.5710 13.5 13.5   .1625E-04
20731.6592   .2638E+03   8019.1200 13.5 14.5   .3791E-02
20731.6506   .2802E+03  10059.5710 13.5 12.5   .3569E-02
20731.6291   .2400E+03   8019.0800 14.5 13.5   .4166E-02
20731.5904   .4912E+05   8019.1200 13.5 13.5   .2036E-04
20729.8279   .3667E+05   5585.9200  3.5  4.5   .2727E-04
20729.6001   .6055E+00  22376.5640 23.5 23.5   .1652E+01
20729.5270   .6748E+02  12873.7090  6.5  6.5   .1482E-01
20729.1703   .3627E+02  22376.5640 23.5 22.5   .2757E-01
20729.1531   .2490E+05  12873.7090  6.5  7.5   .4016E-04
20728.7705   .3667E+05   5586.9800  3.5  4.5   .2727E-04
20727.9969   .2125E+02  21166.9890 25.5 24.5   .4707E-01
20727.7907   .2427E+05  12875.4470  5.5  6.5   .4120E-04
20727.0515   .2276E+04   5588.7000  4.5  4.5   .4393E-03
20726.3597   .2276E+04   5589.3900  4.5  4.5   .4394E-03
20726.3597   .3690E+05   5588.7000  4.5  5.5   .2710E-04
20726.1749   .5433E+05   7879.0430  1.5  2.5   .1841E-04
20726.1577   .6137E+05   9736.8520 11.5 11.5   .1629E-04
20726.0374   .3429E+03   9736.8520 11.5 12.5   .2916E-02
20725.8698   .5433E+05   7879.3480  1.5  2.5   .1841E-04
20725.7323   .2427E+05  12877.5050  5.5  6.5   .4121E-04
20725.6679   .3690E+05   5589.3900  4.5  5.5   .2710E-04
20725.6292   .1215E+03  19639.9680 10.5 10.5   .8227E-02
20725.5691   .4677E+01  19639.9680 10.5 11.5   .2138E+00
20725.1781   .3243E+03   9737.8300 12.5 11.5   .3084E-02
20725.0578   .6140E+05   9737.8300 12.5 12.5   .1629E-04
20724.8730   .4634E+01  18300.1850  1.5  2.5   .2158E+00
20724.7957   .2123E+02  21169.4710 24.5 23.5   .4711E-01
20724.4992   .2636E+03   8026.2800 13.5 14.5   .3793E-02
20724.4520   .4909E+05   8026.3300 14.5 14.5   .2037E-04
20724.4305   .4909E+05   8026.2800 13.5 13.5   .2037E-04
20724.3790   .2399E+03   8026.3300 14.5 13.5   .4169E-02
20723.5112   .1738E+05   3477.3600  6.5  7.5   .5755E-04
20722.1237   .6837E+04   7883.0960  2.5  2.5   .1463E-03
20721.9262   .6837E+04   7883.2950  2.5  2.5   .1463E-03
20721.7801   .5034E+03   3479.0900  7.5  7.5   .1987E-02
20721.5181   .1737E+05   3479.0900  7.5  8.5   .5758E-04
20721.4279   .1737E+05   3479.4400  6.5  7.5   .5756E-04
20720.9040   .5739E+05   7883.0960  2.5  3.5   .1742E-04
20720.7579   .3961E+01   5876.4200  6.5  7.5   .2524E+00
20720.7494   .4383E+02  18646.4720  4.5  5.5   .2282E-01
20720.7064   .5739E+05   7883.2950  2.5  3.5   .1742E-04
20720.0665   .6134E+05   9742.9450 11.5 11.5   .1630E-04
20719.9463   .3427E+03   9742.9450 11.5 12.5   .2918E-02
20719.9291   .5033E+03   3480.9400  7.5  7.5   .1987E-02
20719.6800   .3241E+03   9743.3310 12.5 11.5   .3085E-02
20719.6715   .1736E+05   3480.9400  7.5  8.5   .5759E-04
20719.5598   .6137E+05   9743.3310 12.5 12.5   .1630E-04
20719.0274   .6228E+05  20330.5190 32.5 32.5   .1606E-04
20716.9193   .5215E+02  20332.6280 33.5 32.5   .1918E-01
20716.6660   .3790E+04  10233.1600  2.5  2.5   .2639E-03
20716.3655   .3790E+04  10233.4630  2.5  2.5   .2639E-03
20716.2925   .5042E+05  10233.5330  1.5  2.5   .1983E-04
20715.9963   .5042E+05  10233.8300  1.5  2.5   .1983E-04
20715.9319   .5214E+02  20333.6140 33.5 32.5   .1918E-01
20715.5971   .2801E+02  17405.8820  9.5 10.5   .3570E-01
20715.3267   .2580E+01  17405.8820  9.5  9.5   .3875E+00
20715.2751   .5440E+05  10233.1600  2.5  3.5   .1838E-04
20715.2451   .6226E+05  20334.3020 32.5 32.5   .1606E-04
20714.9704   .5440E+05  10233.4630  2.5  3.5   .1838E-04
20714.1678   .1225E+01  26270.0500 29.5 28.5   .8161E+00
20714.1206   .6099E+05   9444.0190 10.5 10.5   .1640E-04
20713.9618   .1082E+03   6762.6700 16.5 17.5   .9239E-02
20713.8502   .4031E+03   9444.0190 10.5 11.5   .2481E-02
20713.6313   .1275E+03  26270.0500 29.5 29.5   .7843E-02
20713.5712   .2632E+05   6763.0600 17.5 17.5   .3799E-04
20713.5412   .2631E+05   6762.6700 16.5 16.5   .3800E-04
20713.1506   .9844E+02   6763.0600 17.5 16.5   .1016E-01
20713.1077   .3804E+03   9445.0330 11.5 10.5   .2629E-02
20712.8374   .6115E+05   9445.0330 11.5 11.5   .1635E-04
20711.7818   .3030E+03   7666.7600 12.5 13.5   .3301E-02
20711.7388   .4882E+05   7666.7600 12.5 12.5   .2048E-04
20711.4385   .3174E+03   2883.9600  3.5  4.5   .3151E-02
20711.3999   .2030E+04   5355.3700  1.5  2.5   .4927E-03
20711.3098   .2030E+04   5355.4600  1.5  2.5   .4927E-03
20711.1596   .3174E+03   2884.2400  3.5  4.5   .3151E-02
20711.1381   .4891E+05   7667.4000 13.5 13.5   .2045E-04
20711.0995   .2739E+03   7667.4000 13.5 12.5   .3651E-02
20710.7219   .1065E+03  12733.2840  5.5  5.5   .9390E-02
20710.1470   .2608E+05  12733.2840  5.5  6.5   .3834E-04
20708.8343   .6096E+05   9449.3060 10.5 10.5   .1640E-04
20708.8214   .7247E+01  19196.1010  9.5  8.5   .1380E+00
20708.8214   .1065E+03  12735.1850  5.5  5.5   .9391E-02
20708.7828   .1198E+03  19196.1010  9.5  9.5   .8348E-02
20708.5641   .4029E+03   9449.3060 10.5 11.5   .2482E-02
20708.3539   .3802E+03   9449.7850 11.5 10.5   .2630E-02
20708.2466   .2608E+05  12735.1850  5.5  6.5   .3834E-04
20708.0836   .6112E+05   9449.7850 11.5 11.5   .1636E-04
20705.7848   .2519E+05  12738.2240  4.5  5.5   .3971E-04
20705.3817   .3028E+03   7673.1600 12.5 13.5   .3303E-02
20705.3602   .4888E+05   7673.1800 13.5 13.5   .2046E-04
20705.3388   .4879E+05   7673.1600 12.5 12.5   .2050E-04
20705.3216   .2737E+03   7673.1800 13.5 12.5   .3653E-02
20704.6184   .2613E+02  18412.1440  3.5  3.5   .3827E-01
20704.6055   .3071E+02  18412.1440  3.5  4.5   .3256E-01
20704.3440   .2518E+05  12739.6620  4.5  5.5   .3971E-04
20703.8294   .1081E+03   6772.8000 16.5 17.5   .9248E-02
20703.7094   .2630E+05   6772.9200 17.5 17.5   .3802E-04
20703.4093   .1178E+03  14816.7220  5.5  6.5   .8490E-02
20703.4093   .2629E+05   6772.8000 16.5 16.5   .3804E-04
20703.2892   .9834E+02   6772.9200 17.5 16.5   .1017E-01
20702.6118   .6070E+05   9174.2190  9.5  9.5   .1648E-04
20702.3718   .4828E+03   9174.2190  9.5 10.5   .2071E-02
20701.8788   .6239E+05   7825.0030  0.5  1.5   .1603E-04
20701.7502   .6239E+05   7825.1300  0.5  1.5   .1603E-04
20701.5444   .4520E+03   9175.2850 10.5  9.5   .2212E-02
20701.3043   .6077E+05   9175.2850 10.5 10.5   .1645E-04
20700.9914   .1178E+03  14819.1410  5.5  6.5   .8492E-02
20699.1356   .2858E+02  17422.0730  8.5  9.5   .3499E-01
20698.7799   .6728E+02  18618.8050 14.5 14.5   .1486E-01
20698.4285   .1114E+01  18618.8050 14.5 13.5   .8977E+00
20698.1499   .1116E+01  20966.0200 28.5 27.5   .8957E+00
20698.1028   .6067E+05   9178.7290  9.5  9.5   .1648E-04
20698.0085   .1199E+03  19427.4220  9.5  9.5   .8337E-02
20697.9614   .5365E+01  19427.4220  9.5 10.5   .1864E+00
20697.8628   .4826E+03   9178.7290  9.5 10.5   .2072E-02
20697.5971   .8774E+02  14135.8940 17.5 18.5   .1140E-01
20697.5757   .9788E+02  13731.3660 16.5 17.5   .1022E-01
20697.5157   .4518E+03   9179.3150 10.5  9.5   .2213E-02
20697.2757   .6075E+05   9179.3150 10.5 10.5   .1646E-04
20697.2543   .5645E+05  13731.6860 17.5 17.5   .1771E-04
20697.1686   .5652E+05  14136.3220 18.5 18.5   .1769E-04
20697.1258   .5643E+05  13731.3660 16.5 16.5   .1772E-04
20697.0872   .5645E+05  14135.8940 17.5 17.5   .1772E-04
20696.8258   .1116E+01  20966.8530 27.5 26.5   .8963E+00
20696.8044   .1029E+03  13731.6860 17.5 16.5   .9717E-02
20696.6587   .9197E+02  14136.3220 18.5 17.5   .1087E-01
20696.6416   .3898E+05   5480.8500  2.5  3.5   .2565E-04
20696.1489   .3898E+05   5481.3400  2.5  3.5   .2565E-04
20696.0332   .1095E+03  13346.4520 15.5 16.5   .9132E-02
20695.8061   .5642E+05  13346.6780 16.5 16.5   .1772E-04
20695.7162   .7922E+02  14559.5610 18.5 19.5   .1262E-01
20695.6433   .5633E+05  13346.4520 15.5 15.5   .1775E-04
20695.4163   .1155E+03  13346.6780 16.5 15.5   .8655E-02
