841
22082.1255   .3662E+02  22067.4000 17.0 16.0   .2731E-01
22080.2722   .3682E+02  22066.0360 18.0 17.0   .2716E-01
22076.3960   .6594E+01  25712.0810 29.0 28.0   .1517E+00
22071.1371   .7156E+01  16779.4480  6.0  7.0   .1397E+00
22068.0581   .3718E+02  21694.9000 15.0 14.0   .2690E-01
22065.8613   .3641E+02  21695.0270 16.0 15.0   .2746E-01
22064.5562   .1316E+02  18026.2900 10.0 10.0   .7598E-01
22063.6456   .3656E+02  21693.7010 17.0 16.0   .2735E-01
22061.8830   .3115E+02  18829.8610  3.0  2.0   .3210E-01
22061.3524   .6569E+01  26349.3860 29.0 28.0   .1522E+00
22059.0986   .1287E+02  18026.6690 11.0 11.0   .7770E-01
22055.4535   .1319E+02  18025.5050 12.0 12.0   .7582E-01
22053.4247   .3696E+02  21341.8620 14.0 13.0   .2706E-01
22050.9050   .3619E+02  21342.0280 15.0 14.0   .2763E-01
22049.9275   .2343E+02  18830.5150  4.0  3.0   .4267E-01
22048.2935   .3635E+02  21340.7410 16.0 15.0   .2751E-01
22044.8805   .3286E+02  18947.8720  4.0  3.0   .3043E-01
22043.6556   .2059E+02  18735.0750  4.0  3.0   .4857E-01
22042.1149   .1638E+01  25251.2200 16.0 15.0   .6105E+00
22040.5793   .3678E+02  21008.4530 13.0 12.0   .2719E-01
22037.7031   .3590E+02  21008.6580 14.0 13.0   .2785E-01
22035.1044   .2730E+02  18948.4660  5.0  4.0   .3663E-01
22034.6479   .3614E+02  21007.4100 15.0 14.0   .2767E-01
22033.4436   .1308E+02  17760.5330  9.0  9.0   .7646E-01
22033.2202   .6613E+01  27008.4270 29.0 28.0   .1512E+00
22031.8946   .3396E+02  19088.9290  5.0  4.0   .2944E-01
22031.6664   .2570E+02  18829.6830  5.0  4.0   .3891E-01
22029.8701   .3668E+02  20694.9760 12.0 11.0   .2726E-01
22029.5643   .1465E+01  25580.6760 16.0 15.0   .6827E+00
22027.5645   .1273E+02  17760.9530 10.0 10.0   .7855E-01
22026.6084   .3557E+02  20695.2200 13.0 12.0   .2811E-01
22023.6533   .2982E+02  19089.4710  6.0  5.0   .3353E-01
22023.3331   .1310E+02  17759.8280 11.0 11.0   .7635E-01
22023.0566   .3585E+02  20694.0110 14.0 13.0   .2789E-01
22022.4162   .3471E+02  19252.7560  6.0  5.0   .2881E-01
22021.5819   .3644E+02  20401.7690 11.0 10.0   .2744E-01
22021.0725   .2887E+02  18947.5880  6.0  5.0   .3464E-01
22017.8862   .3523E+02  20402.0530 12.0 11.0   .2838E-01
22016.2085   .3521E+02  19439.0450  7.0  6.0   .2840E-01
22015.9661   .3454E+00  25839.6490 32.0 31.0   .2895E+01
22015.9273   .3621E+02  20129.1950 10.0  9.0   .2761E-01
22015.3455   .3152E+02  19253.2510  7.0  6.0   .3172E-01
22013.7700   .3553E+02  20400.8840 13.0 12.0   .2815E-01
22013.1205   .3568E+02  19647.4570  8.0  7.0   .2803E-01
22013.0623   .3598E+02  19877.6320  9.0  8.0   .2779E-01
22012.4613   .3094E+02  19088.5480  7.0  6.0   .3232E-01
22011.7440   .3477E+02  20129.5200 11.0 10.0   .2876E-01
22010.0624   .3276E+02  19439.4960  8.0  7.0   .3053E-01
22008.3278   .3424E+02  19877.9970 10.0  9.0   .2920E-01
22008.2018   .3443E+00  26555.6260 32.0 31.0   .2904E+01
22007.7464   .3364E+02  19647.8640  9.0  8.0   .2973E-01
22006.9713   .3512E+02  20128.3910 12.0 11.0   .2848E-01
22006.1720   .3237E+02  19252.2850  8.0  7.0   .3089E-01
22005.1742   .1296E+02  17517.4970  8.0  8.0   .7714E-01
22002.7769   .3466E+02  19876.9080 11.0 10.0   .2885E-01
22002.3992   .3339E+02  19438.4870  9.0  8.0   .2995E-01
22001.2516   .3414E+02  19646.8150 10.0  9.0   .2929E-01
21998.8019   .1254E+02  17517.9590  9.0  9.0   .7977E-01
21993.8606   .1299E+02  17516.8730 10.0 10.0   .7700E-01
21987.4756   .3461E+00  27291.9340 32.0 31.0   .2890E+01
21979.8474   .1280E+02  17297.5570  7.0  7.0   .7814E-01
21972.9006   .1232E+02  17298.0610  8.0  8.0   .8120E-01
21967.0827   .1288E+02  17297.0160  9.0  9.0   .7764E-01
21957.5780   .1263E+02  17101.0670  6.0  6.0   .7918E-01
21949.9320   .1199E+02  17101.6150  7.0  7.0   .8338E-01
21945.2680   .6496E+01  21377.5420 19.0 18.0   .1539E+00
21943.0041   .1271E+02  17100.6120  8.0  8.0   .7865E-01
21938.4778   .1236E+02  16928.3550  5.0  5.0   .8088E-01
21929.9695   .1157E+02  16928.9500  6.0  6.0   .8644E-01
21922.7225   .1196E+02  16779.7170  4.0  4.0   .8362E-01
21921.5976   .1253E+02  16927.9890  7.0  7.0   .7984E-01
21918.4688   .6467E+01  20924.0230 18.0 17.0   .1546E+00
21917.1234   .6375E+01  20924.0920 19.0 18.0   .1569E+00
21913.1216   .1094E+02  16780.3650  5.0  5.0   .9138E-01
21902.7806   .1222E+02  16779.4480  6.0  6.0   .8181E-01
21892.4206   .6430E+01  20490.1370 17.0 16.0   .1555E+00
21890.8386   .6347E+01  20490.2440 18.0 17.0   .1575E+00
21889.3480   .6359E+01  20488.8110 19.0 18.0   .1573E+00
21886.3913   .1178E+02  16655.2540  5.0  5.0   .8490E-01
21879.5896   .6747E+04  25418.6420  2.0  3.0   .1482E-03
21879.3741   .6747E+04  25418.6420  2.0  3.0   .1482E-03
21872.1318   .1103E+02  16555.6330  4.0  4.0   .9064E-01
21871.3997   .1179E+05  25513.3090  3.0  4.0   .8479E-04
21871.0360   .1179E+05  25513.3090  3.0  4.0   .8479E-04
21867.6968   .6403E+01  20076.0990 16.0 15.0   .1562E+00
21865.8602   .6312E+01  20076.2440 17.0 16.0   .1584E+00
21864.0670   .6332E+01  20074.8480 18.0 17.0   .1579E+00
21852.8359   .1541E+05  25639.3950  4.0  5.0   .6490E-04
21852.2866   .1541E+05  25639.3950  4.0  5.0   .6490E-04
21844.7853   .6374E+01  19682.1760 15.0 14.0   .1569E+00
21842.6710   .6272E+01  19682.3600 16.0 15.0   .1594E+00
21840.5427   .6283E+01  19681.0020 17.0 16.0   .1592E+00
21827.2817   .4681E+00  25489.7780 21.0 20.0   .2136E+01
21824.0844   .6348E+01  19308.6830 14.0 13.0   .1575E+00
21823.6033   .1807E+05  25796.7820  5.0  6.0   .5533E-04
21822.8411   .1807E+05  25796.7820  5.0  6.0   .5533E-04
21821.6693   .6216E+01  19308.9050 15.0 14.0   .1609E+00
21819.1689   .6244E+01  19307.5860 16.0 15.0   .1602E+00
21814.4651   .4695E+05  25418.6420  2.0  2.0   .2130E-04
21814.3556   .4695E+05  25418.6420  2.0  2.0   .2130E-04
21810.9195   .4263E+00  25934.2090 21.0 20.0   .2346E+01
21805.9148   .6315E+01  18955.9680 13.0 12.0   .1584E+00
21803.1660   .6178E+01  18956.2290 14.0 13.0   .1619E+00
21800.2516   .6204E+01  18954.9480 15.0 14.0   .1612E+00
21790.5344   .6280E+01  18624.4040 12.0 11.0   .1592E+00
21787.4239   .6118E+01  18624.7040 13.0 12.0   .1635E+00
21784.9267   .5853E+05  25513.3090  3.0  3.0   .1709E-04
21784.7036   .5853E+05  25513.3090  3.0  3.0   .1709E-04
21784.0390   .6153E+01  18623.4610 14.0 13.0   .1625E+00
21783.3603   .2006E+05  25985.3250  6.0  7.0   .4985E-04
21782.3398   .2006E+05  25985.3250  6.0  7.0   .4986E-04
21778.1452   .6251E+01  18314.3790 11.0 10.0   .1600E+00
21774.6256   .6058E+01  18314.7180 12.0 11.0   .1651E+00
21770.9271   .1402E+06  25418.6420  2.0  1.0   .7132E-05
21770.8891   .1402E+06  25418.6420  2.0  1.0   .7132E-05
21770.7042   .6095E+01  18313.5140 13.0 12.0   .1641E+00
21768.9028   .6210E+01  18026.2900 10.0  9.0   .1610E+00
21764.9266   .5990E+01  18026.6690 11.0 10.0   .1669E+00
21760.3693   .6036E+01  18025.5050 12.0 11.0   .1657E+00
21753.1203   .5956E+01  17759.8280 11.0 10.0   .1679E+00
21745.3180   .6290E+05  25639.3950  4.0  4.0   .1590E-04
21744.9490   .6290E+05  25639.3950  4.0  4.0   .1590E-04
21719.8021   .9309E+05  25513.3090  3.0  2.0   .1074E-04
21719.6888   .9308E+05  25513.3090  3.0  2.0   .1074E-04
21695.4477   .6494E+05  25796.7820  5.0  5.0   .1540E-04
21694.9015   .6493E+05  25796.7820  5.0  5.0   .1540E-04
21658.8376   .7436E+05  25639.3950  4.0  3.0   .1345E-04
21658.6218   .7435E+05  25639.3950  4.0  3.0   .1345E-04
21635.0597   .6584E+05  25985.3250  6.0  6.0   .1519E-04
21634.2966   .6584E+05  25985.3250  6.0  6.0   .1519E-04
21625.4332   .8220E-01  25739.9570 25.0 24.0   .1217E+02
21599.9783   .7601E-01  26290.3770 25.0 24.0   .1316E+02
21587.9307   .6432E+05  25796.7820  5.0  4.0   .1555E-04
21587.5624   .6431E+05  25796.7820  5.0  4.0   .1555E-04
21556.4594   .2244E+02  26883.8490 23.0 24.0   .4456E-01
21519.4688   .4842E+02  26674.8300 19.0 20.0   .2065E-01
21506.9046   .5806E+05  25985.3250  6.0  5.0   .1722E-04
21506.3587   .5806E+05  25985.3250  6.0  5.0   .1722E-04
21506.1320   .2229E+02  26398.3250 23.0 24.0   .4487E-01
21506.0950   .2234E+02  26398.5480 22.0 23.0   .4475E-01
21463.2250   .4814E+02  26292.1290 18.0 19.0   .2077E-01
21462.4878   .4805E+02  26291.9750 19.0 20.0   .2081E-01
21447.1048   .2222E+02  25934.2090 21.0 22.0   .4501E-01
21446.9714   .2237E+02  25932.4890 23.0 24.0   .4470E-01
21446.9300   .2217E+02  25934.0260 22.0 23.0   .4511E-01
21440.4906   .1846E+03  26503.2990 14.0 15.0   .5417E-02
21403.0672   .4785E+02  25927.5520 17.0 18.0   .2090E-01
21402.0409   .4775E+02  25927.4400 18.0 19.0   .2094E-01
21401.1291   .4844E+02  25926.0790 19.0 20.0   .2064E-01
21388.5746   .1833E+03  26227.9950 13.0 14.0   .5456E-02
21386.1725   .1824E+03  26227.9570 14.0 15.0   .5482E-02
21381.5209   .2207E+02  25489.9220 20.0 21.0   .4532E-01
21381.1276   .2203E+02  25489.7780 21.0 22.0   .4540E-01
21380.9173   .2229E+02  25488.2810 22.0 23.0   .4486E-01
21340.4119   .4759E+02  25580.6760 16.0 17.0   .2101E-01
21339.0909   .4746E+02  25580.6050 17.0 18.0   .2107E-01
21337.8339   .4824E+02  25579.2860 18.0 19.0   .2073E-01
21336.8366   .1824E+03  25968.9910 12.0 13.0   .5482E-02
21334.0272   .1811E+03  25968.9980 13.0 14.0   .5522E-02
21331.0502   .1866E+03  25967.8680 14.0 15.0   .5360E-02
21326.7637   .1249E+04  23030.2550  7.0  8.0   .8007E-03
21326.2087   .1153E+04  22808.5540  6.0  7.0   .8672E-03
21325.5536   .1249E+04  23030.2550  7.0  8.0   .8008E-03
21325.2670   .1153E+04  22808.5540  6.0  7.0   .8673E-03
21322.7109   .1322E+04  23282.9660  8.0  9.0   .7567E-03
21321.2557   .1035E+04  22618.0940  5.0  6.0   .9664E-03
21321.1966   .1321E+04  23282.9660  8.0  9.0   .7568E-03
21320.5509   .1035E+04  22618.0940  5.0  6.0   .9665E-03
21316.6277   .2210E+01  26296.4770  8.0  7.0   .4524E+00
21316.0050   .7611E+03  26297.1030  6.0  7.0   .1314E-02
21315.8050   .9342E+02  26297.3010  7.0  7.0   .1070E-01
21313.8237   .1384E+04  23566.4210  9.0 10.0   .7224E-03
21312.0880   .8811E+03  22459.0740  4.0  5.0   .1135E-02
21311.9699   .1384E+04  23566.4210  9.0 10.0   .7225E-03
21311.5792   .8810E+03  22459.0740  4.0  5.0   .1135E-02
21311.0976   .2196E+02  25064.9930 19.0 20.0   .4554E-01
21310.4798   .2187E+02  25064.8890 20.0 21.0   .4572E-01
21310.0165   .2214E+02  25063.4320 21.0 22.0   .4518E-01
21299.8419   .1433E+04  23880.3210 10.0 11.0   .6980E-03
21298.8527   .6724E+03  22331.6590  3.0  4.0   .1487E-02
21298.5169   .6724E+03  22331.6590  3.0  4.0   .1487E-02
21297.6140   .1432E+04  23880.3210 10.0 11.0   .6981E-03
21295.5452   .9175E+01  24703.7840 22.0 23.0   .1090E+00
21285.9238   .1809E+03  25726.4290 11.0 12.0   .5529E-02
21284.1745   .7418E+03  26168.5710  5.0  6.0   .1348E-02
21283.9208   .1181E+03  26168.8210  6.0  6.0   .8466E-02
21282.6793   .1798E+03  25726.4810 12.0 13.0   .5561E-02
21281.6962   .3829E+03  22235.9810  2.0  3.0   .2612E-02
21281.4923   .3829E+03  22235.9810  2.0  3.0   .2612E-02
21280.4685   .1476E+04  24224.3370 11.0 12.0   .6774E-03
21279.1821   .1861E+03  25725.3960 13.0 14.0   .5375E-02
21277.8416   .1476E+04  24224.3370 11.0 12.0   .6776E-03
21277.0491   .1132E+03  26168.0470  7.0  7.0   .8833E-02
21276.4468   .4736E+02  25251.2480 15.0 16.0   .2111E-01
21276.2748   .7309E+03  26168.8210  6.0  7.0   .1368E-02
21274.8168   .4708E+02  25251.2200 16.0 17.0   .2124E-01
21273.1962   .4804E+02  25249.9420 17.0 18.0   .2082E-01
21255.3895   .1509E+04  24598.1030 12.0 13.0   .6626E-03
21254.4044   .7156E+03  26057.5570  4.0  5.0   .1398E-02
21254.0971   .1540E+03  26057.8620  5.0  5.0   .6492E-02
21252.3215   .1509E+04  24598.1030 12.0 13.0   .6628E-03
21245.9623   .1468E+03  26057.1390  6.0  6.0   .6812E-02
21245.2399   .7026E+03  26057.8620  5.0  6.0   .1423E-02
21237.3645   .2179E+02  24658.9210 18.0 19.0   .4589E-01
21236.5119   .2175E+02  24658.8570 19.0 20.0   .4597E-01
21236.3360   .1797E+03  25500.5440 10.0 11.0   .5565E-02
21235.7811   .2202E+02  24657.4390 20.0 21.0   .4541E-01
21234.5813   .8225E+03  26057.1390  6.0  7.0   .1216E-02
21232.6286   .1783E+03  25500.6410 11.0 12.0   .5608E-02
21228.5528   .1856E+03  25499.6000 12.0 13.0   .5387E-02
21226.9031   .6709E+03  25964.4200  3.0  4.0   .1490E-02
21226.5335   .2088E+03  25964.7870  4.0  4.0   .4790E-02
21224.2443   .1536E+04  25001.2230 13.0 14.0   .6510E-03
21220.7078   .1536E+04  25001.2230 13.0 14.0   .6512E-03
21216.7762   .1968E+03  25964.1160  5.0  5.0   .5080E-02
21216.1053   .6623E+03  25964.7870  4.0  5.0   .1510E-02
21214.4215   .9103E+01  24216.0840 21.0 22.0   .1099E+00
21214.0479   .9084E+01  24215.9780 22.0 23.0   .1101E+00
21212.1574   .4698E+02  24939.1700 14.0 15.0   .2128E-01
21210.2088   .4685E+02  24939.1830 15.0 16.0   .2134E-01
21208.2065   .4776E+02  24937.9470 16.0 17.0   .2094E-01
21203.5555   .7996E+02  25795.3130  2.0  3.0   .1251E-01
21203.3396   .8242E+03  25964.1160  5.0  6.0   .1213E-02
21201.9996   .5968E+03  25889.4750  2.0  3.0   .1676E-02
21201.5590   .2957E+03  25889.9140  3.0  3.0   .3382E-02
21196.8839   .2659E+04  22235.9810  2.0  2.0   .3761E-03
21196.7805   .2659E+04  22235.9810  2.0  2.0   .3761E-03
21189.6057   .2749E+03  25889.2990  4.0  4.0   .3638E-02
21188.9904   .5972E+03  25889.9140  3.0  4.0   .1674E-02
21188.4740   .1783E+03  25291.6350  9.0 10.0   .5609E-02
21186.6419   .1559E+04  25433.2650 14.0 15.0   .6413E-03
21186.0178   .3320E+04  22331.6590  3.0  3.0   .3012E-03
21185.8158   .3320E+04  22331.6590  3.0  3.0   .3012E-03
21184.2446   .1768E+03  25291.7780 10.0 11.0   .5657E-02
21182.6017   .1559E+04  25433.2650 14.0 15.0   .6416E-03
21180.3354   .4561E+03  25832.9650  1.0  2.0   .2193E-02
21179.7880   .4375E+03  25833.5140  2.0  2.0   .2286E-02
21179.5323   .1849E+03  25290.7820 11.0 12.0   .5407E-02
21173.3556   .8267E+03  25889.2990  4.0  5.0   .1210E-02
21171.4410   .3584E+04  22459.0740  4.0  4.0   .2790E-03
21171.1002   .3584E+04  22459.0740  4.0  4.0   .2790E-03
21168.3478   .1464E+04  26442.7660  7.0  7.0   .6832E-03
21168.1999   .8006E+02  26442.9130  8.0  7.0   .1249E-01
21164.6417   .3993E+03  25832.9600  3.0  3.0   .2505E-02
21164.0906   .4901E+03  25833.5140  2.0  3.0   .2041E-02
21162.9526   .2019E+03  25795.3130  2.0  1.0   .4953E-02
21162.4733   .6625E+03  25795.7940  1.0  1.0   .1510E-02
21161.9671   .1050E+03  25776.5260  1.0  2.0   .9522E-02
21161.6311   .2163E+02  24271.3750 17.0 18.0   .4623E-01
21160.5338   .2158E+02  24271.3500 18.0 19.0   .4633E-01
21159.5261   .2190E+02  24269.9720 19.0 20.0   .4567E-01
21153.7684   .1435E+04  26297.1030  6.0  6.0   .6967E-03
21153.5669   .1012E+03  26297.3010  7.0  6.0   .9886E-02
21153.0657   .3711E+04  22618.0940  5.0  5.0   .2695E-03
21152.5599   .3711E+04  22618.0940  5.0  5.0   .2695E-03
21152.5241   .1028E+04  25776.5260  1.0  0.0   .9730E-03
21149.6065   .9113E+02  26296.4770  8.0  7.0   .1097E-01
21148.9801   .8844E+02  26297.1030  6.0  7.0   .1131E-01
21148.7788   .1342E+04  26297.3010  7.0  7.0   .7454E-03
21148.3538   .4670E+02  24644.4660 13.0 14.0   .2141E-01
21146.0680   .4648E+02  24644.5220 14.0 15.0   .2152E-01
21144.3685   .8342E+03  25832.9600  3.0  4.0   .1199E-02
21143.9526   .4744E+01  26794.7460 16.0 15.0   .2108E+00
21143.8229   .3509E+03  26794.8720 15.0 15.0   .2850E-02
21143.6619   .4753E+02  24643.3280 15.0 16.0   .2104E-01
21142.6245   .1765E+03  25100.0520  8.0  9.0   .5666E-02
21142.1550   .1581E+04  25893.7670 15.0 16.0   .6325E-03
21142.1550   .5991E+03  25795.3130  2.0  2.0   .1669E-02
21141.6766   .3086E+03  25795.7940  1.0  2.0   .3240E-02
21141.5604   .1396E+04  26168.5710  5.0  5.0   .7161E-03
21141.3100   .1321E+03  26168.8210  6.0  5.0   .7568E-02
21140.2550   .7948E+04  22235.9810  2.0  1.0   .1258E-03
21140.2192   .7948E+04  22235.9810  2.0  1.0   .1258E-03
21137.8190   .1746E+03  25100.2410  9.0 10.0   .5727E-02
21137.5687   .1580E+04  25893.7670 15.0 16.0   .6328E-03
21136.2280   .1162E+03  26168.0470  7.0  6.0   .8605E-02
21135.7007   .1130E+03  26168.5710  5.0  6.0   .8846E-02
21135.4505   .1277E+04  26168.8210  6.0  6.0   .7830E-03
21132.3768   .1846E+03  25099.2900 10.0 11.0   .5416E-02
21131.8989   .1336E+04  26057.5570  4.0  4.0   .7486E-03
21131.5951   .1798E+03  26057.8620  5.0  4.0   .5562E-02
21130.8001   .3776E+04  22808.5540  6.0  6.0   .2648E-03
21130.0900   .3776E+04  22808.5540  6.0  6.0   .2648E-03
21129.9515   .1559E+04  25795.7940  1.0  0.0   .6413E-03
21129.4469   .9046E+01  23748.0100 20.0 21.0   .1105E+00
21128.8976   .9009E+01  23747.9430 21.0 22.0   .1110E+00
21128.5136   .9116E+01  23746.4250 22.0 23.0   .1097E+00
21125.0491   .1529E+03  26057.1390  6.0  5.0   .6541E-02
21125.0446   .1238E+04  25964.4200  3.0  3.0   .8079E-03
21124.6741   .2568E+03  25964.7870  4.0  3.0   .3894E-02
21124.6295   .1494E+03  26057.5570  4.0  5.0   .6694E-02
21124.3260   .1187E+04  26057.8620  5.0  5.0   .8427E-03
21122.5228   .7542E+03  25832.9650  1.0  1.0   .1326E-02
21122.4291   .1427E+04  26168.0470  7.0  7.0   .7006E-03
21122.2908   .9026E+03  25776.5260  1.0  1.0   .1108E-02
21121.9739   .6599E+03  25833.5140  2.0  1.0   .1515E-02
21121.6571   .1073E+03  26168.8210  6.0  7.0   .9322E-02
21121.5232   .1068E+04  25889.4750  2.0  2.0   .9362E-03
21121.0859   .3923E+03  25889.9140  3.0  2.0   .2549E-02
21116.1251   .2071E+03  25964.1160  5.0  4.0   .4829E-02
21115.9155   .8517E+03  25795.3130  2.0  3.0   .1174E-02
21115.8218   .2056E+03  25964.4200  3.0  4.0   .4863E-02
21115.4561   .1052E+04  25964.7870  4.0  4.0   .9504E-03
21109.5664   .2864E+03  25889.2990  4.0  3.0   .3491E-02
21109.3925   .2978E+03  25889.4750  2.0  3.0   .3357E-02
21109.3881   .1387E+04  26057.1390  6.0  6.0   .7209E-03
21108.9513   .8433E+03  25889.9140  3.0  3.0   .1186E-02
21108.9290   .6971E+00  27076.0450 21.0 20.0   .1435E+01
21108.8978   .3489E+03  26503.2990 14.0 14.0   .2866E-02
21108.6928   .9147E+02  27076.2820 20.0 20.0   .1093E-01
21108.6660   .1410E+03  26057.8620  5.0  6.0   .7094E-02
21108.2382   .5137E+01  26501.9980 16.0 15.0   .1947E+00
21107.0216   .3433E+03  26503.2160 15.0 15.0   .2913E-02
21105.5333   .3944E+03  25832.9600  3.0  2.0   .2535E-02
21105.5288   .4623E+03  25832.9650  1.0  2.0   .2163E-02
21104.9808   .5284E+03  25833.5140  2.0  2.0   .1893E-02
21104.5085   .3818E+04  23030.2550  7.0  7.0   .2619E-03
21104.4996   .8786E+03  25794.8740  0.0  1.0   .1138E-02
21104.0586   .4707E+03  25795.3130  2.0  1.0   .2124E-02
21103.5685   .3817E+04  23030.2550  7.0  7.0   .2620E-03
21101.2033   .5270E+04  22331.6590  3.0  2.0   .1898E-03
21101.1009   .5270E+04  22331.6590  3.0  2.0   .1898E-03
21099.0123   .1743E+03  24926.1700  7.0  8.0   .5738E-02
21097.8902   .1325E+04  25964.1160  5.0  5.0   .7547E-03
21097.2179   .1933E+03  25964.7870  4.0  5.0   .5174E-02
21096.0827   .5291E+03  25832.9650  1.0  0.0   .1890E-02
21093.5500   .1725E+03  24926.4060  8.0  9.0   .5798E-02
21090.3016   .1593E+04  26382.2300 16.0 17.0   .6277E-03
21087.6191   .1227E+04  25889.2990  4.0  4.0   .8148E-03
21087.2588   .1845E+03  24925.5020  9.0 10.0   .5420E-02
21087.1743   .9251E+03  25776.5260  1.0  2.0   .1081E-02
21087.0053   .2786E+03  25889.9140  3.0  4.0   .3590E-02
21085.7022   .4632E+02  24367.2690 12.0 13.0   .2159E-01
21085.1463   .1592E+04  26382.2300 16.0 17.0   .6280E-03
21084.9995   .2148E+02  23902.1710 16.0 17.0   .4656E-01
21083.6477   .2142E+02  23902.1870 17.0 18.0   .4668E-01
21083.0519   .4609E+02  24367.3670 13.0 14.0   .2170E-01
21082.3450   .2172E+02  23900.8480 18.0 19.0   .4603E-01
21080.2068   .4737E+02  24366.2150 14.0 15.0   .2111E-01
21078.0557   .1063E+04  25832.9600  3.0  3.0   .9404E-03
21077.5046   .4292E+03  25833.5140  2.0  3.0   .2330E-02
21074.1012   .3470E+03  26227.9950 13.0 13.0   .2882E-02
21074.0524   .3839E+04  23282.9660  8.0  8.0   .2605E-03
21072.8397   .3838E+04  23282.9660  8.0  8.0   .2605E-03
21072.2845   .9110E+02  26674.8300 19.0 19.0   .1098E-01
21071.9380   .7426E+00  26673.1910 21.0 20.0   .1347E+01
21071.9336   .3405E+03  26227.9570 14.0 14.0   .2937E-02
21070.4902   .9010E+02  26674.6350 20.0 20.0   .1110E-01
21068.7895   .5349E+03  25889.4750  2.0  1.0   .1869E-02
21068.3233   .7541E+03  25795.3130  2.0  2.0   .1326E-02
21067.8394   .7285E+03  25795.7940  1.0  2.0   .1373E-02
21066.5519   .3475E+03  26226.7830 15.0 15.0   .2878E-02
21065.8506   .5336E+03  25832.9650  1.0  1.0   .1874E-02
21058.5999   .4216E+04  22459.0740  4.0  3.0   .2372E-03
21058.4003   .4216E+04  22459.0740  4.0  3.0   .2372E-03
21057.8104   .1717E+03  24770.3780  6.0  7.0   .5823E-02
21051.5848   .1695E+03  24770.6630  7.0  8.0   .5898E-02
21048.8811   .5965E+03  25964.4200  3.0  2.0   .1676E-02
21047.9948   .3611E+03  25889.4750  2.0  2.0   .2770E-02
21047.5561   .2848E+03  25889.9140  3.0  2.0   .3511E-02
21044.2820   .1844E+03  24769.8040  8.0  9.0   .5424E-02
21041.9610   .8965E+01  23299.2300 19.0 20.0   .1115E+00
21041.2259   .8950E+01  23299.2020 20.0 21.0   .1117E+00
21040.6280   .9037E+01  23297.7220 21.0 22.0   .1107E+00
21040.1897   .3446E+03  25968.9910 12.0 12.0   .2902E-02
21039.2598   .3841E+04  23566.4210  9.0  9.0   .2603E-03
21037.7412   .3840E+04  23566.4210  9.0  9.0   .2604E-03
21037.6969   .3371E+03  25968.9980 13.0 13.0   .2966E-02
21036.1255   .2192E+00  27390.9600 25.0 24.0   .4562E+01
21035.8245   .4206E+02  27391.2620 24.0 24.0   .2378E-01
21033.9170   .6381E+03  26057.5570  4.0  3.0   .1567E-02
21033.1824   .2517E+03  25964.4200  3.0  3.0   .3973E-02
21032.8151   .4138E+03  25964.7870  4.0  3.0   .2416E-02
21031.9301   .3455E+03  25967.8680 14.0 14.0   .2894E-02
21031.2488   .9071E+02  26292.1290 18.0 18.0   .1102E-01
21030.7400   .2218E+03  25832.9600  3.0  2.0   .4509E-02
21030.5674   .1606E+04  26898.1250 17.0 18.0   .6228E-03
21030.1870   .3303E+03  25833.5140  2.0  2.0   .3028E-02
21029.2845   .8969E+02  26291.9750 19.0 19.0   .1115E-01
21026.4849   .9055E+02  26290.5730 20.0 20.0   .1104E-01
21024.8045   .1605E+04  26898.1250 17.0 18.0   .6232E-03
21024.7205   .4599E+02  24107.7940 11.0 12.0   .2174E-01
21022.7487   .6657E+03  26168.5710  5.0  4.0   .1502E-02
21021.9265   .3823E+03  25889.2990  4.0  3.0   .2616E-02
21021.6833   .4572E+02  24107.9350 12.0 13.0   .2187E-01
21021.3474   .1816E+03  26057.5570  4.0  4.0   .5505E-02
21021.3120   .2860E+03  25889.9140  3.0  3.0   .3497E-02
21021.0424   .5026E+03  26057.8620  5.0  4.0   .1990E-02
21019.1641   .1680E+03  24633.0580  5.0  6.0   .5951E-02
21018.3598   .4720E+02  24106.8250 13.0 14.0   .2119E-01
21014.8562   .6852E+03  26297.1030  6.0  5.0   .1459E-02
21013.2131   .4874E+03  25964.1160  5.0  4.0   .2052E-02
21012.5417   .2172E+03  25964.7870  4.0  4.0   .4604E-02
21012.4181   .3663E+04  22618.0940  5.0  4.0   .2730E-03
21012.3209   .1364E+03  26168.5710  5.0  5.0   .7333E-02
21012.0824   .3663E+04  22618.0940  5.0  4.0   .2730E-03
21012.0692   .5619E+03  26168.8210  6.0  5.0   .1780E-02
21012.0295   .1656E+03  24633.3930  6.0  7.0   .6040E-02
21009.9761   .6983E+03  26442.7660  7.0  6.0   .1432E-02
21008.7929   .4186E+02  26883.8490 23.0 23.0   .2389E-01
21008.4088   .2130E+02  23551.2580 15.0 16.0   .4694E-01
21008.3867   .2311E+00  26881.9720 25.0 24.0   .4328E+01
21007.9497   .7076E+03  26605.1560  8.0  7.0   .1413E-02
21007.7687   .3429E+03  25726.4290 11.0 11.0   .2916E-02
21006.7887   .2122E+02  23551.3140 16.0 17.0   .4712E-01
21006.7710   .4165E+02  26883.5870 24.0 24.0   .2401E-01
21005.9986   .1057E+03  26297.1030  6.0  6.0   .9465E-02
21005.8000   .6038E+03  26297.3010  7.0  6.0   .1656E-02
21005.5175   .5552E+03  26057.1390  6.0  5.0   .1801E-02
21005.1689   .2161E+02  23550.0150 17.0 18.0   .4628E-01
21004.9129   .3341E+03  25726.4810 12.0 12.0   .2993E-02
21004.7938   .1635E+03  26057.8620  5.0  5.0   .6118E-02
21003.4787   .1842E+03  24632.5820  7.0  8.0   .5429E-02
21002.3271   .8425E+02  26442.7660  7.0  7.0   .1187E-01
21002.1815   .6333E+03  26442.9130  8.0  7.0   .1579E-02
20999.9227   .3849E+04  23880.3210 10.0 10.0   .2598E-03
20999.4066   .6006E+03  26168.0470  7.0  6.0   .1665E-02
20998.7053   .3437E+03  25725.3960 13.0 13.0   .2910E-02
20998.6348   .1258E+03  26168.8210  6.0  6.0   .7951E-02
20998.0702   .3848E+04  23880.3210 10.0 10.0   .2598E-03
20995.2436   .6328E+03  26296.4770  8.0  7.0   .1580E-02
20994.4191   .9891E+02  26297.3010  7.0  7.0   .1011E-01
20987.2087   .9015E+02  25927.5520 17.0 17.0   .1109E-01
20985.0501   .8908E+02  25927.4400 18.0 18.0   .1123E-01
20983.2266   .1624E+03  24514.5760  4.0  5.0   .6159E-02
20982.0376   .9011E+02  25926.0790 19.0 19.0   .1110E-01
20977.3004   .3400E+03  25500.5440 10.0 10.0   .2942E-02
20974.9721   .1598E+03  24514.9650  5.0  6.0   .6257E-02
20974.0304   .3302E+03  25500.6410 11.0 11.0   .3028E-02
20971.9185   .4171E+02  26398.5480 22.0 22.0   .2398E-01
20969.7631   .4142E+02  26398.3250 23.0 23.0   .2414E-01
20968.6371   .4170E+02  26396.7500 24.0 24.0   .2398E-01
20967.3090   .3406E+03  25499.6000 12.0 12.0   .2936E-02
20965.8316   .4565E+02  23866.3220 10.0 11.0   .2191E-01
20964.8423   .1841E+03  24514.2020  6.0  7.0   .5432E-02
20962.6048   .3309E+04  22808.5540  6.0  5.0   .3022E-03
20962.3718   .4540E+02  23866.5060 11.0 12.0   .2203E-01
20962.0993   .3308E+04  22808.5540  6.0  5.0   .3023E-03
20958.5178   .4694E+02  23865.4380 12.0 13.0   .2131E-01
20955.8248   .3846E+04  24224.3370 11.0 11.0   .2600E-03
20953.5979   .3845E+04  24224.3370 11.0 11.0   .2601E-03
20953.1149   .8883E+01  22869.5530 18.0 19.0   .1126E+00
20952.1839   .8868E+01  22869.5630 19.0 20.0   .1128E+00
20951.3628   .8976E+01  22868.1220 20.0 21.0   .1114E+00
20950.1949   .1536E+03  24415.2640  3.0  4.0   .6512E-02
20949.1369   .3371E+03  25291.6350  9.0  9.0   .2967E-02
20945.3843   .3259E+03  25291.7780 10.0 10.0   .3068E-02
20942.8701   .6643E-01  28082.1020 29.0 28.0   .1505E+02
20942.4972   .1747E+02  28082.4740 28.0 28.0   .5724E-01
20941.5277   .8967E+02  25580.6760 16.0 16.0   .1115E-01
20941.2251   .4043E+02  24415.0010  5.0  5.0   .2473E-01
20940.5101   .1513E+03  24415.7130  4.0  5.0   .6611E-02
20939.1636   .8851E+02  25580.6050 17.0 17.0   .1130E-01
20938.0541   .3383E+03  25290.7820 11.0 11.0   .2956E-02
20935.9100   .8969E+02  25579.2860 18.0 18.0   .1115E-01
20934.9981   .1744E+02  27460.1070 27.0 27.0   .5734E-01
20934.5948   .6966E-01  27457.9890 29.0 28.0   .1436E+02
20932.8107   .1737E+02  27459.7730 28.0 28.0   .5755E-01
20932.6398   .2116E+02  23218.6910 14.0 15.0   .4727E-01
20930.7378   .2110E+02  23218.7870 15.0 16.0   .4740E-01
20928.7835   .2151E+02  23217.5280 16.0 17.0   .4650E-01
20928.2972   .1848E+03  24415.0010  5.0  6.0   .5412E-02
20927.4648   .4151E+02  25934.2090 21.0 21.0   .2409E-01
20925.1740   .4124E+02  25934.0260 22.0 22.0   .2425E-01
20923.8951   .4153E+02  25932.4890 23.0 23.0   .2408E-01
20923.5229   .3334E+03  25100.0520  8.0  8.0   .2999E-02
20920.3923   .1381E+03  24335.4110  2.0  3.0   .7241E-02
20919.8670   .5973E+02  24335.9340  3.0  3.0   .1674E-01
20919.2104   .3202E+03  25100.2410  9.0  9.0   .3123E-02
20911.9991   .1740E+02  26863.2560 26.0 26.0   .5746E-01
20911.1461   .3355E+03  25099.2900 10.0 10.0   .2981E-02
20909.8428   .1742E+02  26861.2140 28.0 28.0   .5742E-01
20909.7116   .1732E+02  26862.9600 27.0 27.0   .5775E-01
20909.4405   .5722E+02  24335.2750  4.0  4.0   .1747E-01
20909.3530   .4525E+02  23643.1830  9.0 10.0   .2210E-01
20909.0950   .3075E+04  23030.2550  7.0  6.0   .3252E-03
20908.7801   .1376E+03  24335.9340  3.0  4.0   .7268E-02
20908.3909   .3075E+04  23030.2550  7.0  6.0   .3252E-03
20906.7032   .3835E+04  24598.1030 12.0 12.0   .2608E-03
20905.4223   .4497E+02  23643.4100 10.0 11.0   .2224E-01
20904.0759   .3834E+04  24598.1030 12.0 12.0   .2608E-03
20900.9730   .4683E+02  23642.3850 11.0 12.0   .2135E-01
20900.6584   .3291E+03  24926.1700  7.0  7.0   .3038E-02
20895.6739   .3132E+03  24926.4060  8.0  8.0   .3193E-02
20895.3464   .8910E+02  25251.2480 15.0 15.0   .1122E-01
20894.4424   .1082E+03  24275.2380  1.0  2.0   .9242E-02
20893.8048   .9062E+02  24275.8740  2.0  2.0   .1104E-01
20893.6913   .1857E+03  24335.2750  4.0  5.0   .5385E-02
20892.7525   .8783E+02  25251.2200 16.0 16.0   .1139E-01
20889.2383   .8911E+02  25249.9420 17.0 17.0   .1122E-01
20886.7070   .3312E+03  24925.5020  9.0  9.0   .3019E-02
20880.6738   .3226E+03  24770.3780  6.0  6.0   .3100E-02
20880.6127   .8502E+02  24275.2750  3.0  3.0   .1176E-01
20880.0153   .1144E+03  24275.8740  2.0  3.0   .8740E-02
20877.4208   .4128E+02  25489.9220 20.0 20.0   .2423E-01
20876.2961   .1733E+02  26290.3770 25.0 25.0   .5769E-01
20874.9796   .4101E+02  25489.7780 21.0 21.0   .2438E-01
20874.8750   .3036E+03  24770.6630  7.0  7.0   .3294E-02
20873.9118   .1734E+02  26288.4100 27.0 27.0   .5768E-01
20873.8987   .1726E+02  26290.1180 26.0 26.0   .5793E-01
20873.5370   .4132E+02  25488.2810 22.0 22.0   .2420E-01
20872.8571   .1433E+03  24235.7250  1.0  1.0   .6979E-02
20864.7763   .3270E+03  24769.8040  8.0  8.0   .3058E-02
20863.9054   .8805E+01  22458.9030 17.0 18.0   .1136E+00
20863.7051   .3144E+03  24633.0580  5.0  5.0   .3180E-02
20862.7647   .8787E+01  22458.9520 18.0 19.0   .1138E+00
20861.7068   .8914E+01  22457.5490 19.0 20.0   .1122E+00
20860.7578   .1873E+03  24275.2750  3.0  4.0   .5339E-02
20858.3379   .2100E+02  22904.6190 13.0 14.0   .4761E-01
20856.8889   .2902E+03  24633.3930  6.0  6.0   .3446E-02
20856.1318   .2090E+02  22904.7550 14.0 15.0   .4784E-01
20855.5401   .4486E+02  23438.7340  8.0  9.0   .2229E-01
20855.1050   .1314E+03  24235.2000  2.0  2.0   .7610E-02
20853.8086   .2138E+02  22903.5370 15.0 16.0   .4677E-01
20852.2689   .3820E+04  25001.2230 13.0 13.0   .2618E-03
20851.7991   .2900E+04  23282.9660  8.0  7.0   .3449E-03
20851.0816   .4448E+02  23439.0060  9.0 10.0   .2248E-01
20850.8554   .2899E+04  23282.9660  8.0  7.0   .3449E-03
20849.9118   .3021E+03  24514.5760  4.0  4.0   .3310E-02
20849.6074   .8850E+02  24939.1700 14.0 14.0   .1130E-01
20849.2030   .3819E+04  25001.2230 13.0 13.0   .2618E-03
20847.5639   .1937E+02  26442.9130  8.0  7.0   .5162E-01
20846.7684   .8727E+02  24939.1830 15.0 15.0   .1146E-01
20845.9382   .4672E+02  23438.0240 10.0 11.0   .2141E-01
20845.3253   .3207E+03  24632.5820  7.0  7.0   .3118E-02
20842.9568   .8862E+02  24937.9470 16.0 16.0   .1128E-01
20841.7749   .2714E+03  24514.9650  5.0  5.0   .3685E-02
20840.9624   .1670E+03  27102.8260 16.0 15.0   .5989E-02
20840.9276   .1644E+02  26605.1560  8.0  7.0   .6083E-01
20839.5635   .2824E+03  24415.2640  3.0  3.0   .3541E-02
20833.2015   .2058E+03  24215.2070  1.0  1.0   .4858E-02
20833.1884   .2470E+03  24335.4110  2.0  2.0   .4049E-02
20832.6632   .8235E+02  24335.9340  3.0  2.0   .1214E-01
20832.0337   .1772E+03  24275.2380  1.0  1.0   .5643E-02
20831.3956   .1427E+03  24275.8740  2.0  1.0   .7007E-02
20830.3583   .1727E+02  25740.1770 24.0 24.0   .5790E-01
20829.6291   .2428E+03  24415.7130  4.0  4.0   .4118E-02
20829.0042   .1916E+03  24235.2000  2.0  3.0   .5219E-02
20828.2578   .3123E+03  24514.2020  6.0  6.0   .3203E-02
20827.8499   .1717E+02  25739.9570 25.0 25.0   .5823E-01
20827.7415   .1726E+02  25738.2860 26.0 26.0   .5792E-01
20823.4987   .4104E+02  25064.9930 19.0 19.0   .2437E-01
20821.6988   .1663E+03  26794.8720 15.0 14.0   .6015E-02
20821.2782   .6224E+02  24335.2750  4.0  3.0   .1607E-01
20821.1394   .6153E+02  24335.4110  2.0  3.0   .1625E-01
20820.9009   .4068E+02  25064.8890 20.0 20.0   .2458E-01
20820.6191   .1977E+03  24335.9340  3.0  3.0   .5058E-02
20819.3834   .1624E+03  26794.7460 16.0 15.0   .6156E-02
20819.2793   .4108E+02  25063.4320 21.0 21.0   .2434E-01
20815.6511   .9726E+02  24275.2380  1.0  2.0   .1028E-01
20815.6121   .8809E+02  24275.2750  3.0  2.0   .1135E-01
20815.0140   .1270E+03  24275.8740  2.0  2.0   .7872E-02
20814.0693   .1900E+03  24234.6780  0.0  1.0   .5263E-02
20813.3889   .2988E+03  24415.0010  5.0  5.0   .3346E-02
20812.6740   .4040E+02  24415.7130  4.0  5.0   .2475E-01
20805.0813   .8793E+02  24644.4660 13.0 13.0   .1137E-01
20804.5748   .4426E+02  23253.3510  7.0  8.0   .2259E-01
20802.5271   .1656E+03  26503.2990 14.0 13.0   .6039E-02
20801.9644   .8649E+02  24644.5220 14.0 14.0   .1156E-01
20800.3977   .2780E+03  24335.2750  4.0  4.0   .3597E-02
20799.8091   .1610E+03  26503.2160 15.0 14.0   .6211E-02
20799.7399   .5875E+02  24335.9340  3.0  4.0   .1702E-01
20799.5192   .4390E+02  23253.6680  8.0  9.0   .2278E-01
20797.8230   .8807E+02  24643.3280 15.0 15.0   .1135E-01
20797.5288   .2076E+03  24215.2070  1.0  2.0   .4817E-02
20796.9231   .1625E+03  26501.9980 16.0 15.0   .6155E-02
20793.5665   .4664E+02  23252.7300  9.0 10.0   .2144E-01
20792.1999   .3807E+04  25433.2650 14.0 14.0   .2627E-03
20790.6000   .2763E+04  23566.4210  9.0  8.0   .3619E-03
20789.3852   .2763E+04  23566.4210  9.0  8.0   .3619E-03
20788.7497   .2414E+03  24275.2750  3.0  3.0   .4143E-02
20788.6632   .3805E+04  25433.2650 14.0 14.0   .2628E-03
20788.1488   .9198E+02  24275.8740  2.0  3.0   .1087E-01
20786.0266   .2081E+02  22609.2640 12.0 13.0   .4805E-01
20784.3543   .1647E+03  26227.9950 13.0 12.0   .6072E-02
20783.4901   .2076E+02  22609.4410 13.0 14.0   .4817E-01
20781.2047   .1596E+03  26227.9570 14.0 13.0   .6264E-02
20780.7684   .2124E+02  22608.2630 14.0 15.0   .4709E-01
20777.7927   .1610E+03  26226.7830 15.0 14.0   .6210E-02
20777.4818   .1719E+03  24235.2000  2.0  2.0   .5816E-02
20776.9550   .1590E+03  24235.7250  1.0  2.0   .6290E-02
20776.3980   .1715E+02  25211.5960 23.0 23.0   .5832E-01
20775.1804   .8733E+01  22067.3120 16.0 17.0   .1145E+00
20773.8163   .8709E+01  22067.4000 17.0 18.0   .1148E+00
20773.7688   .1706E+02  25211.4140 24.0 24.0   .5862E-01
20773.5271   .1716E+02  25209.7820 25.0 25.0   .5826E-01
20772.4998   .8832E+01  22066.0360 18.0 19.0   .1132E+00
20767.8912   .1638E+03  25968.9910 12.0 11.0   .6107E-02
20767.1794   .4080E+02  24658.9210 18.0 18.0   .2451E-01
20764.4102   .4043E+02  24658.8570 19.0 19.0   .2473E-01
20764.2679   .1581E+03  25968.9980 13.0 12.0   .6327E-02
20762.5990   .4082E+02  24657.4390 20.0 20.0   .2450E-01
20762.3791   .8745E+02  24367.2690 12.0 12.0   .1144E-01
20760.2837   .1597E+03  25967.8680 14.0 13.0   .6263E-02
20758.9603   .8574E+02  24367.3670 13.0 13.0   .1166E-01
20756.6157   .4369E+02  23087.4120  6.0  7.0   .2289E-01
20754.4353   .8749E+02  24366.2150 14.0 14.0   .1143E-01
20754.4138   .1353E+03  24415.2640  3.0  2.0   .7389E-02
20753.6770   .1626E+03  25726.4290 11.0 10.0   .6150E-02
20750.8641   .4313E+02  23087.7750  7.0  8.0   .2319E-01
20749.5419   .1561E+03  25726.4810 12.0 11.0   .6406E-02
20744.9176   .1581E+03  25725.3960 13.0 12.0   .6324E-02
20743.9362   .4658E+02  23086.8810  8.0  9.0   .2147E-01
20742.1329   .1615E+03  25500.5440 10.0  9.0   .6193E-02
20741.2249   .1441E+03  24514.5760  4.0  3.0   .6939E-02
20740.1750   .9720E+02  24415.7130  4.0  3.0   .1029E-01
20737.4216   .1540E+03  25500.6410 11.0 10.0   .6495E-02
20733.5467   .1600E+03  25291.6350  9.0  8.0   .6251E-02
20732.4030   .1497E+03  24633.0580  5.0  4.0   .6680E-02
20732.0676   .1562E+03  25499.6000 12.0 11.0   .6402E-02
20729.7505   .1159E+03  24514.9650  5.0  4.0   .8628E-02
20728.9296   .8754E+02  24335.2750  4.0  3.0   .1142E-01
20728.2720   .5959E+02  24335.9340  3.0  3.0   .1678E-01
20728.1774   .1512E+03  25291.7780 10.0  9.0   .6614E-02
20728.1345   .1582E+03  25100.0520  8.0  7.0   .6322E-02
20727.4254   .1534E+03  24770.3780  6.0  5.0   .6519E-02
20726.1405   .3783E+04  25893.7670 15.0 15.0   .2644E-03
20726.0546   .1564E+03  24926.1700  7.0  6.0   .6394E-02
20725.3585   .2651E+04  23880.3210 10.0  9.0   .3772E-03
20723.8420   .2651E+04  23880.3210 10.0  9.0   .3773E-03
20722.8325   .1284E+03  24633.3930  6.0  5.0   .7787E-02
20722.0980   .3781E+04  25893.7670 15.0 15.0   .2645E-03
20722.0078   .1478E+03  25100.2410  9.0  8.0   .6768E-02
20721.9949   .8675E+02  24107.7940 11.0 11.0   .1153E-01
20721.9777   .1537E+03  25290.7820 11.0 10.0   .6505E-02
20721.0328   .1108E+03  24415.0010  5.0  4.0   .9021E-02
20720.3199   .4453E+02  24415.7130  4.0  4.0   .2245E-01
20719.2764   .1371E+03  24770.6630  7.0  6.0   .7295E-02
20719.0188   .1431E+03  24926.4060  8.0  7.0   .6986E-02
20718.2287   .8490E+02  24107.9350 12.0 12.0   .1178E-01
20716.3569   .1704E+02  24703.7840 22.0 22.0   .5867E-01
20716.1251   .2065E+02  22332.9070 11.0 12.0   .4844E-01
20714.7944   .1510E+03  25099.2900 10.0  9.0   .6623E-02
20714.7644   .1257E+03  24514.2020  6.0  5.0   .7956E-02
20713.6013   .1693E+02  24703.6400 23.0 23.0   .5908E-01
20713.2665   .8695E+02  24106.8250 13.0 13.0   .1150E-01
20713.2365   .2057E+02  22333.1250 12.0 13.0   .4861E-01
20713.2150   .1704E+02  24702.0460 24.0 24.0   .5869E-01
20711.7946   .4272E+02  22941.2800  5.0  6.0   .2341E-01
20710.7177   .1354E+03  24632.5820  7.0  6.0   .7386E-02
20710.5589   .1473E+03  24925.5020  9.0  8.0   .6791E-02
20710.0698   .2114E+02  22331.9870 13.0 14.0   .4730E-01
20709.7266   .4059E+02  24271.3750 17.0 17.0   .2464E-01
20709.2418   .1424E+03  24769.8040  8.0  7.0   .7025E-02
20706.7755   .4010E+02  24271.3500 18.0 18.0   .2494E-01
20705.2144   .4219E+02  22941.6930  6.0  7.0   .2370E-01
20704.7470   .4057E+02  24269.9720 19.0 19.0   .2465E-01
20697.0786   .4651E+02  22940.8440  7.0  8.0   .2150E-01
20696.9630   .4317E+02  27497.3370 21.0 20.0   .2316E-01
20687.6563   .8671E+01  21694.9000 15.0 16.0   .1153E+00
20686.0554   .8638E+01  21695.0270 16.0 17.0   .1158E+00
20684.4590   .8775E+01  21693.7010 17.0 18.0   .1140E+00
20684.2921   .8614E+02  23866.3220 10.0 10.0   .1161E-01
20680.1332   .8385E+02  23866.5060 11.0 11.0   .1193E-01
20679.0681   .4307E+02  27076.2820 20.0 19.0   .2322E-01
20678.4179   .4250E+02  27076.0450 21.0 20.0   .2353E-01
20674.6633   .8631E+02  23865.4380 12.0 12.0   .1159E-01
20670.2604   .4144E+02  22815.3020  4.0  5.0   .2413E-01
20662.6688   .4089E+02  22815.7660  5.0  6.0   .2446E-01
20655.9064   .2559E+04  24224.3370 11.0 10.0   .3908E-03
20655.7869   .4286E+02  26674.8300 19.0 18.0   .2333E-01
20654.8480   .4228E+02  26674.6350 20.0 19.0   .2365E-01
20654.0543   .2558E+04  24224.3370 11.0 10.0   .3909E-03
20654.0159   .4240E+02  26673.1910 21.0 20.0   .2358E-01
20653.6916   .3764E+04  26382.2300 16.0 16.0   .2657E-03
20652.9876   .4656E+02  22814.9640  6.0  7.0   .2148E-01
20652.2069   .4023E+02  23902.1710 16.0 16.0   .2486E-01
20651.9424   .1693E+02  24216.0840 21.0 21.0   .5908E-01
20649.5579   .8535E+02  23643.1830  9.0  9.0   .1172E-01
20649.1058   .3762E+04  26382.2300 16.0 16.0   .2658E-03
20649.0546   .3980E+02  23902.1870 17.0 17.0   .2513E-01
20649.0503   .1682E+02  24215.9780 22.0 22.0   .5947E-01
20648.9736   .2047E+02  22075.8730 10.0 11.0   .4884E-01
20648.5130   .1694E+02  24214.4220 23.0 23.0   .5904E-01
20646.7901   .4024E+02  23900.8480 18.0 18.0   .2485E-01
20645.6943   .2036E+02  22076.1330 11.0 12.0   .4911E-01
20644.9440   .8271E+02  23643.4100 10.0 10.0   .1209E-01
20642.0326   .2105E+02  22075.0350 12.0 13.0   .4750E-01
20638.8706   .8566E+02  23642.3850 11.0 11.0   .1167E-01
20632.1962   .3944E+02  22709.7860  3.0  4.0   .2535E-01
20628.9606   .4276E+02  26292.1290 18.0 17.0   .2339E-01
20627.7220   .4206E+02  26291.9750 19.0 18.0   .2378E-01
20626.5431   .4226E+02  26290.5730 20.0 19.0   .2366E-01
20623.3220   .3886E+02  22710.3100  4.0  5.0   .2574E-01
20618.0012   .8437E+02  23438.7340  8.0  8.0   .1185E-01
20612.8574   .8141E+02  23439.0060  9.0  9.0   .1228E-01
20611.5867   .4671E+02  22709.5570  5.0  6.0   .2141E-01
20606.0554   .8490E+02  23438.0240 10.0 10.0   .1178E-01
20601.9321   .8582E+01  21341.8620 14.0 15.0   .1165E+00
20600.1449   .4250E+02  25927.5520 17.0 16.0   .2353E-01
20600.0770   .8558E+01  21342.0280 15.0 16.0   .1169E+00
20598.5999   .4176E+02  25927.4400 18.0 17.0   .2395E-01
20598.1755   .8724E+01  21340.7410 16.0 17.0   .1146E+00
20597.0594   .4193E+02  25926.0790 19.0 18.0   .2385E-01
20595.5064   .4002E+02  23551.2580 15.0 15.0   .2498E-01
20592.1339   .3945E+02  23551.3140 16.0 16.0   .2535E-01
20589.7759   .8324E+02  23253.3510  7.0  7.0   .1201E-01
20589.6105   .4003E+02  23550.0150 17.0 17.0   .2498E-01
20587.3337   .3557E+02  22625.5970  3.0  4.0   .2811E-01
20584.8326   .2032E+02  21838.5150  9.0 10.0   .4920E-01
20584.6504   .1681E+02  23748.0100 20.0 20.0   .5951E-01
20584.0019   .7957E+02  23253.6680  8.0  8.0   .1257E-01
20582.0568   .2480E+04  24598.1030 12.0 11.0   .4033E-03
20581.6119   .1670E+02  23747.9430 21.0 21.0   .5989E-01
20581.1246   .2020E+02  21838.8160 10.0 11.0   .4950E-01
20580.9128   .1682E+02  23746.4250 22.0 22.0   .5945E-01
20579.8325   .2479E+04  24598.1030 12.0 11.0   .4034E-03
20576.8928   .2099E+02  21837.7600 11.0 12.0   .4765E-01
20576.3041   .8397E+02  23252.7300  9.0  9.0   .1191E-01
20574.4070   .3739E+04  26898.1250 17.0 17.0   .2675E-03
20572.7304   .4692E+02  22624.8960  4.0  5.0   .2131E-01
20570.6520   .4229E+02  25580.6760 16.0 15.0   .2364E-01
20569.2511   .3737E+04  26898.1250 17.0 17.0   .2676E-03
20568.7856   .4150E+02  25580.6050 17.0 16.0   .2410E-01
20566.8687   .4173E+02  25579.2860 18.0 17.0   .2397E-01
20565.0114   .8193E+02  23087.4120  6.0  6.0   .1221E-01
20558.4777   .7727E+02  23087.7750  7.0  7.0   .1294E-01
20549.6499   .8266E+02  23086.8810  8.0  8.0   .1210E-01
20543.8267   .8000E+02  22941.2800  5.0  5.0   .1250E-01
20541.5726   .4207E+02  25251.2480 15.0 14.0   .2377E-01
20540.3656   .3972E+02  23218.6910 14.0 14.0   .2518E-01
20539.3696   .4121E+02  25251.2200 16.0 15.0   .2427E-01
20537.0490   .4137E+02  25249.9420 17.0 16.0   .2417E-01
20536.7579   .3916E+02  23218.7870 15.0 15.0   .2554E-01
20536.3487   .7417E+02  22941.6930  6.0  6.0   .1348E-01
20536.1505   .4742E+02  22561.2150  3.0  4.0   .2109E-01
20533.9402   .3977E+02  23217.5280 16.0 16.0   .2514E-01
20526.3809   .7701E+02  22815.3020  4.0  4.0   .1299E-01
20526.0522   .8122E+02  22940.8440  7.0  7.0   .1231E-01
20523.9200   .2013E+02  21621.2020  8.0  9.0   .4967E-01
20519.7159   .1996E+02  21621.5470  9.0 10.0   .5009E-01
20518.5072   .8512E+01  21008.4530 13.0 14.0   .1175E+00
20518.1071   .1969E+02  27922.1990 25.0 24.0   .5079E-01
20517.6860   .6966E+02  22815.7660  5.0  5.0   .1435E-01
20516.3723   .8491E+01  21008.6580 14.0 15.0   .1178E+00
20515.7703   .1668E+02  23299.2300 19.0 19.0   .5994E-01
20514.8315   .2092E+02  21620.5320 10.0 11.0   .4780E-01
20514.1369   .8664E+01  21007.4100 15.0 16.0   .1154E+00
20513.8001   .4187E+02  24939.1700 14.0 13.0   .2389E-01
20513.4971   .1945E+02  27390.9600 25.0 24.0   .5140E-01
20513.3834   .1964E+02  27391.2620 24.0 23.0   .5092E-01
20512.9373   .7229E+02  22709.7860  3.0  3.0   .1383E-01
20512.5753   .1657E+02  23299.2020 20.0 20.0   .6034E-01
20511.6957   .1670E+02  23297.7220 21.0 21.0   .5989E-01
20511.2370   .4081E+02  24939.1830 15.0 14.0   .2451E-01
20508.4768   .4108E+02  24937.9470 16.0 15.0   .2434E-01
20507.4124   .9497E+00  27102.8260 16.0 15.0   .1053E+01
20505.4187   .7906E+02  22814.9640  6.0  6.0   .1265E-01
20504.0393   .6380E+02  22624.9990  2.0  2.0   .1567E-01
20503.5809   .2415E+04  25001.2230 13.0 12.0   .4141E-03
20502.6096   .6274E+02  22710.3100  4.0  4.0   .1594E-01
20501.3398   .4860E+02  22518.6950  2.0  3.0   .2058E-01
20500.9530   .2414E+04  25001.2230 13.0 12.0   .4142E-03
20498.5865   .1060E+01  26794.7460 16.0 15.0   .9436E+00
20497.4895   .1947E+02  26881.9720 25.0 24.0   .5136E-01
20497.4685   .1960E+02  26883.8490 23.0 22.0   .5101E-01
20497.3719   .1943E+02  26883.5870 24.0 23.0   .5147E-01
20491.3304   .5178E+02  22625.5970  3.0  3.0   .1931E-01
20488.0507   .4161E+02  24644.4660 13.0 12.0   .2403E-01
20487.5594   .7599E+02  22709.5570  5.0  5.0   .1316E-01
20487.3873   .3942E+02  22904.6190 13.0 13.0   .2537E-01
20485.0952   .4043E+02  24644.5220 14.0 13.0   .2474E-01
20483.5129   .3878E+02  22904.7550 14.0 14.0   .2579E-01
20481.8594   .4078E+02  24643.3280 15.0 14.0   .2452E-01
20480.3657   .3949E+02  22903.5370 15.0 15.0   .2532E-01
20472.8919   .1954E+02  26398.5480 22.0 21.0   .5116E-01
20472.5775   .1933E+02  26398.3250 23.0 22.0   .5173E-01
20472.4517   .1938E+02  26396.7500 24.0 23.0   .5160E-01
20472.1625   .7083E+02  22624.8960  4.0  4.0   .1412E-01
20467.3090   .5264E+02  22497.4870  1.0  2.0   .1900E-01
20466.3830   .1990E+02  21424.3100  7.0  8.0   .5026E-01
20464.8874   .4135E+02  24367.2690 12.0 11.0   .2419E-01
20461.6287   .1969E+02  21424.6980  8.0  9.0   .5078E-01
20461.5072   .4000E+02  24367.3670 13.0 12.0   .2500E-01
20458.6725   .6177E+02  22561.2150  3.0  3.0   .1619E-01
20457.7389   .4041E+02  24366.2150 14.0 13.0   .2475E-01
20455.9598   .2082E+02  21423.7250  9.0 10.0   .4802E-01
20446.4128   .1656E+02  22869.5530 18.0 18.0   .6037E-01
20444.7445   .4103E+02  24107.7940 11.0 10.0   .2437E-01
20443.0555   .1641E+02  22869.5630 19.0 19.0   .6093E-01
20441.9812   .1657E+02  22868.1220 20.0 20.0   .6034E-01
20441.8809   .1947E+02  25934.2090 21.0 20.0   .5136E-01
20441.3417   .1922E+02  25934.0260 22.0 21.0   .5204E-01
20440.9572   .1927E+02  25932.4890 23.0 22.0   .5189E-01
20440.8987   .3957E+02  24107.9350 12.0 11.0   .2527E-01
20437.7897   .8446E+01  20694.9760 12.0 13.0   .1184E+00
20437.0502   .3918E+02  22609.2640 12.0 12.0   .2552E-01
20436.5321   .3990E+02  24106.8250 13.0 12.0   .2506E-01
20435.3541   .8404E+01  20695.2200 13.0 14.0   .1190E+00
20432.8815   .3841E+02  22609.4410 13.0 13.0   .2604E-01
20432.7437   .8599E+01  20694.0110 14.0 15.0   .1163E+00
20429.3617   .3920E+02  22608.2630 14.0 14.0   .2551E-01
20427.9507   .4072E+02  23866.3220 10.0  9.0   .2456E-01
20423.5813   .3901E+02  23866.5060 11.0 10.0   .2563E-01
20420.2273   .2355E+04  25433.2650 14.0 13.0   .4247E-03
20418.5257   .3949E+02  23865.4380 12.0 11.0   .2532E-01
20417.1580   .2354E+04  25433.2650 14.0 13.0   .4248E-03
20414.7440   .4042E+02  23643.1830  9.0  8.0   .2474E-01
20412.3764   .1958E+02  21248.2040  6.0  7.0   .5107E-01
20409.7761   .3838E+02  23643.4100 10.0  9.0   .2606E-01
20406.9723   .1942E+02  21248.6380  7.0  8.0   .5149E-01
20406.3641   .1935E+02  25489.9220 20.0 19.0   .5169E-01
20405.5936   .1914E+02  25489.7780 21.0 20.0   .5226E-01
20405.2937   .3995E+02  23438.7340  8.0  7.0   .2503E-01
20404.9397   .1919E+02  25488.2810 22.0 21.0   .5210E-01
20403.9111   .3885E+02  23642.3850 11.0 10.0   .2574E-01
20400.7009   .3786E+02  22941.2800  5.0  4.0   .2641E-01
20400.3595   .2083E+02  21247.7080  8.0  9.0   .4801E-01
20399.7268   .3949E+02  23253.3510  7.0  6.0   .2533E-01
20399.6311   .3749E+02  23439.0060  9.0  8.0   .2667E-01
20398.1493   .3881E+02  23087.4120  6.0  5.0   .2577E-01
20393.2394   .3639E+02  23253.6680  8.0  7.0   .2748E-01
20392.7901   .3814E+02  23438.0240 10.0  9.0   .2622E-01
20391.9374   .3294E+02  22941.6930  6.0  5.0   .3036E-01
20390.6564   .3500E+02  23087.7750  7.0  6.0   .2857E-01
20389.7373   .3884E+02  22332.9070 11.0 11.0   .2575E-01
20385.2388   .3800E+02  22333.1250 12.0 12.0   .2631E-01
20385.1931   .3727E+02  23252.7300  9.0  8.0   .2683E-01
20382.6620   .3201E+02  22814.9640  6.0  5.0   .3124E-01
20381.2865   .3893E+02  22331.9870 13.0 13.0   .2569E-01
20381.0705   .3610E+02  23086.8810  8.0  7.0   .2770E-01
20380.2977   .3440E+02  22940.8440  7.0  6.0   .2907E-01
20377.5352   .1646E+02  22458.9030 17.0 17.0   .6076E-01
20373.9970   .1630E+02  22458.9520 18.0 18.0   .6136E-01
20372.7141   .1645E+02  22457.5490 19.0 19.0   .6079E-01
20368.0114   .1927E+02  25064.9930 19.0 18.0   .5190E-01
20366.9948   .1901E+02  25064.8890 20.0 19.0   .5261E-01
20366.0654   .1906E+02  25063.4320 21.0 20.0   .5246E-01
20362.0169   .1922E+02  21093.2370  5.0  6.0   .5202E-01
20360.1135   .8371E+01  20401.7690 11.0 12.0   .1195E+00
20357.3441   .8341E+01  20402.0530 12.0 13.0   .1199E+00
20355.8395   .1899E+02  21093.7190  6.0  7.0   .5267E-01
20354.3185   .8552E+01  20400.8840 13.0 14.0   .1169E+00
20348.0545   .2078E+02  21092.8330  7.0  8.0   .4811E-01
20345.7480   .3854E+02  22075.8730 10.0 10.0   .2595E-01
20340.8674   .3760E+02  22076.1330 11.0 11.0   .2660E-01
20336.4111   .3861E+02  22075.0350 12.0 12.0   .2590E-01
20331.7004   .2297E+04  25893.7670 15.0 14.0   .4354E-03
20330.4889   .8064E+01  27457.9890 29.0 28.0   .1240E+00
20328.6369   .8063E+01  28082.1020 29.0 28.0   .1240E+00
20328.2483   .1915E+02  24658.9210 18.0 17.0   .5221E-01
