841
13194.3963   .1869E+00  14554.6740 16.5 17.5   .5350E+01
13192.8519   .4906E-04   3810.7040 14.5 14.5   .2038E+05
13192.5890   .3687E-03   1026.7540  7.5  6.5   .2712E+04
13192.1816   .8087E-02  12740.6200 12.5 12.5   .1237E+03
13192.0406   .4709E-03  25838.1240 39.5 40.5   .2123E+04
13191.8056   .1868E+00  14563.6000 16.5 17.5   .5352E+01
13191.4470   .4662E-03  11529.9770 15.5 15.5   .2145E+04
13191.0815   .4651E-03  11536.1660 15.5 15.5   .2150E+04
13189.7902   .4077E-06  24300.4660 36.5 36.5   .2453E+07
13189.7797   .3677E-03   1029.1150  7.5  6.5   .2720E+04
13189.1968   .4903E-04   3819.1260 14.5 14.5   .2040E+05
13188.8279   .4735E-03  25825.4380 40.5 41.5   .2112E+04
13188.1546   .3567E-03  24289.4210 35.5 36.5   .2804E+04
13186.6343   .3611E-03  24269.6970 36.5 37.5   .2770E+04
13184.7247   .2378E-03  14400.4540 25.5 25.5   .4205E+04
13183.2278   .1771E-03  14422.9480 24.5 24.5   .5647E+04
13180.2366   .1709E-02    824.5960  5.5  5.5   .5850E+03
13179.8891   .1218E-03  17385.2590 24.5 23.5   .8209E+04
13179.7865   .1705E-02    824.8800  5.5  5.5   .5864E+03
13178.4158   .8372E-01    288.8370  2.5  1.5   .1195E+02
13178.3602   .8372E-01    289.1100  2.5  1.5   .1195E+02
13177.8460   .7633E-03  13751.8290  5.5  6.5   .1310E+04
13176.6371   .7632E-03  13752.7650  5.5  6.5   .1310E+04
13176.3141   .4588E-02    767.4800  6.5  6.5   .2180E+03
13176.0033   .3552E-03  24314.2530 35.5 36.5   .2815E+04
13175.0882   .6850E-04  14420.7310 25.5 24.5   .1460E+05
13174.8573   .9258E-03  13942.4460  6.5  7.5   .1080E+04
13174.8382   .4674E-03  20185.8870 24.5 24.5   .2140E+04
13174.5777   .5326E-03  13591.1280  4.5  5.5   .1877E+04
13173.8868   .5326E-03  13591.7220  4.5  5.5   .1878E+04
13173.6437   .6555E-03  20162.7470 25.5 25.5   .1526E+04
13173.2098   .4586E-02    769.2370  6.5  6.5   .2181E+03
13173.0744   .3807E-03  20180.5830 25.5 24.5   .2627E+04
13173.0136   .9234E-03  13943.7950  6.5  7.5   .1083E+04
13171.8733   .3603E-03  24300.4660 36.5 37.5   .2776E+04
13171.4916   .5653E-03    187.5600  1.5  2.5   .1769E+04
13171.4881   .2718E-03    289.1100  2.5  3.5   .3679E+04
13171.4308   .2718E-03    288.8370  2.5  3.5   .3679E+04
13171.3770   .5653E-03    187.8190  1.5  2.5   .1769E+04
13169.8831   .1455E-07  23143.0060 32.5 32.5   .6874E+08
13169.8172   .1410E-03  22121.9570 24.5 25.5   .7091E+04
13168.1484   .5731E-05   9672.2900 23.5 24.5   .1745E+06
13165.5923   .2649E-03  13460.2680  3.5  4.5   .3776E+04
13165.2975   .2649E-03  13460.5980  3.5  4.5   .3776E+04
13165.1710   .1018E-02  14162.9400  7.5  8.5   .9824E+03
13164.0788   .8146E-04  12772.0720 11.5 12.5   .1228E+05
13162.5883   .1018E-02  14164.7670  7.5  8.5   .9828E+03
13162.2313   .7011E-06  14422.9480 24.5 25.5   .1426E+07
13162.1949   .1273E-03    429.5270  3.5  4.5   .7856E+04
13161.8847   .2942E-01   3841.6710 13.5 14.5   .3399E+02
13161.7842   .1273E-03    429.3440  3.5  4.5   .7856E+04
13161.5468   .1345E-01  12137.3980 25.5 24.5   .7434E+02
13161.4914   .2942E-01   3846.8320 13.5 14.5   .3399E+02
13160.8035   .1182E-02    126.3600  0.5  1.5   .8460E+03
13160.6840   .1182E-02    126.5170  0.5  1.5   .8460E+03
13160.6632   .2928E-01   3810.7040 14.5 15.5   .3415E+02
13159.8074   .2927E-01   3819.1260 14.5 15.5   .3416E+02
13159.4384   .1345E-01  12115.5360 26.5 25.5   .7437E+02
13157.6372   .8119E-04  12775.0350 11.5 12.5   .1232E+05
13157.5195   .1764E-03  14438.2990 24.5 24.5   .5669E+04
13157.1195   .6955E-01    201.9310  3.5  2.5   .1438E+02
13156.8182   .6955E-01    202.3780  3.5  2.5   .1438E+02
13156.5983   .1745E-03  17433.0790 21.5 22.5   .5732E+04
13156.2105   .3795E-02  11178.3370  6.5  5.5   .2635E+03
13155.7603   .1344E-01  12154.7390 25.5 24.5   .7440E+02
13155.7067   .1211E-03  17399.6800 24.5 23.5   .8258E+04
13155.0869   .3794E-02  11178.8360  6.5  5.5   .2635E+03
13154.7961   .2993E-02  11723.7810  8.5  8.5   .3342E+03
13154.4846   .2992E-02  11722.4710  8.5  8.5   .3342E+03
13154.2907   .4648E-03  20199.3650 24.5 24.5   .2151E+04
13154.2890   .1448E-07  23168.7470 32.5 32.5   .6907E+08
13152.7418   .3374E-03  13853.2040 20.5 19.5   .2964E+04
13152.0843   .1343E-01  12138.2080 26.5 25.5   .7445E+02
13151.5496   .5176E-04  13359.0510  2.5  3.5   .1932E+05
13151.5185   .5176E-04  13359.1960  2.5  3.5   .1932E+05
13150.5203   .2361E-03  14420.7310 25.5 25.5   .4236E+04
13150.5030   .1795E-04  20185.8870 24.5 25.5   .5572E+05
13149.2646   .4461E-03  23163.6240 31.5 32.5   .2242E+04
13148.4258   .1054E-02  14413.1740  8.5  9.5   .9487E+03
13148.3515   .1402E-03  22137.6810 24.5 25.5   .7130E+04
13148.3428   .1807E-02  13147.3340 13.5 12.5   .5535E+03
13147.1238   .4368E-03  23143.0060 32.5 33.5   .2289E+04
13146.5101   .6513E-03  20180.5830 25.5 25.5   .1535E+04
13145.0062   .1053E-02  14415.5400  8.5  9.5   .9492E+03
13144.5067   .5800E-04    608.2590  4.5  5.5   .1724E+05
13143.5666   .5799E-04    608.2630  4.5  5.5   .1724E+05
13143.5563   .2927E-03   1321.2750  8.5  7.5   .3416E+04
13142.7925   .2911E-02  20589.5300 34.5 33.5   .3436E+03
13141.4191   .1369E-02   1077.9240  6.5  6.5   .7306E+03
13141.3483   .3884E-06  17741.9040 29.5 29.5   .2575E+07
13141.1565   .2906E-02  20569.7560 35.5 34.5   .3441E+03
13140.3205   .1368E-02   1078.5740  6.5  6.5   .7308E+03
13139.7350   .1804E-02  13153.5590 13.5 12.5   .5542E+03
13139.7178   .2925E-03   1324.3140  8.5  7.5   .3418E+04
13139.0028   .4454E-03  23184.0340 31.5 32.5   .2245E+04
13138.0135   .3374E-02   1026.7540  7.5  7.5   .2964E+03
13137.5749   .1028E-04  12137.3980 25.5 25.5   .9724E+05
13136.6186   .5677E-05   9691.2860 23.5 24.5   .1761E+06
13135.7469   .4026E-04   4341.7700 15.5 15.5   .2484E+05
13135.5536   .1028E-04  12154.7390 25.5 25.5   .9727E+05
13135.4587   .1735E-03  17446.9370 21.5 22.5   .5764E+04
13134.3024   .4360E-03  23168.7470 32.5 33.5   .2294E+04
13133.8262   .3371E-02   1029.1150  7.5  7.5   .2966E+03
13133.3069   .6262E-05  13287.2020  1.5  2.5   .1597E+06
13133.2016   .6262E-05  13287.1630  1.5  2.5   .1597E+06
13132.9515   .6964E-06  14438.2990 24.5 25.5   .1436E+07
13132.4305   .3356E-03  13866.8870 20.5 19.5   .2980E+04
13131.7767   .4024E-04   4351.2680 15.5 15.5   .2485E+05
13131.2903   .2906E-02  20615.4660 34.5 33.5   .3442E+03
13130.9747   .4764E-04  20817.8320 22.5 22.5   .2099E+05
13130.0469   .1842E+00  18778.3860 22.5 21.5   .5430E+01
13129.7382   .3868E-06  17766.5700 29.5 29.5   .2585E+07
13129.4123   .2597E-04  17763.0610 28.5 27.5   .3851E+05
13127.7279   .1785E-04  20199.3650 24.5 25.5   .5604E+05
13127.5107   .2900E-02  20601.9430 35.5 34.5   .3448E+03
13127.1194   .7824E-03  13878.8260 19.5 19.5   .1278E+04
13126.7540   .1170E-02  13853.2040 20.5 20.5   .8547E+03
13125.6251   .1839E+00  18754.2470 23.5 22.5   .5437E+01
13125.5373   .1738E-03  15078.8460 17.5 17.5   .5753E+04
13124.3207   .1054E-02  14692.9290  9.5 10.5   .9487E+03
13124.2828   .1840E+00  18790.1300 22.5 21.5   .5434E+01
13123.1337   .8205E-01    429.5270  3.5  2.5   .1219E+02
13123.0769   .8205E-01    429.3440  3.5  2.5   .1219E+02
13122.2415   .4747E-04  20831.7110 22.5 22.5   .2107E+05
13121.3838   .1340E-05  20589.5300 34.5 34.5   .7464E+06
13120.4573   .1737E-03  15088.7290 17.5 17.5   .5758E+04
13120.1921   .2103E-02  17763.0610 28.5 29.5   .4755E+03
13119.9735   .1056E-02  14695.8910  9.5 10.5   .9471E+03
13119.1987   .2558E-04    824.5960  5.5  6.5   .3910E+05
13118.8389   .2082E-02  17741.9040 29.5 30.5   .4802E+03
13118.3586   .1431E-05  29026.1470 43.5 44.5   .6988E+06
13117.8440   .1837E+00  18770.1140 23.5 22.5   .5444E+01
13117.5651   .2551E-04    824.8800  5.5  6.5   .3920E+05
13116.1849   .5787E+00  12041.7220  9.5  8.5   .1728E+01
13115.2127   .5787E+00  12043.5280  9.5  8.5   .1728E+01
13114.7224   .9322E-05  15687.9450 30.5 29.5   .1073E+06
13113.9861   .2101E-02  17782.3230 28.5 29.5   .4759E+03
13113.9861   .1338E-05  20615.4660 34.5 34.5   .7473E+06
13113.6265   .3619E-02  13182.0490 12.5 12.5   .2763E+03
13113.3135   .1026E-04   9695.3720 22.5 21.5   .9747E+05
13111.9513   .5340E-03  10524.2510 13.5 12.5   .1873E+04
13111.1517   .2080E-02  17766.5700 29.5 30.5   .4808E+03
13110.7666   .7786E-03  13888.5510 19.5 19.5   .1284E+04
13110.3230   .6906E-02  13147.3340 13.5 13.5   .1448E+03
13108.0436   .3046E-04  22331.8100 34.5 33.5   .3283E+05
13107.6226   .3616E-02  13185.6710 12.5 12.5   .2766E+03
13106.7857   .1186E-02  19599.9430 20.5 19.5   .8432E+03
13106.3664   .5729E+00  11999.5910 10.5  9.5   .1746E+01
13106.1774   .2716E-01   4371.3400 14.5 15.5   .3682E+02
13105.7874   .9022E-01  20843.0190 21.5 22.5   .1108E+02
13105.6740   .2716E-01   4377.3710 14.5 15.5   .3682E+02
13105.1483   .7463E-01    355.1200  4.5  3.5   .1340E+02
13104.9473   .2701E-01   4341.7700 15.5 16.5   .3702E+02
13104.6845   .7463E-01    355.9130  4.5  3.5   .1340E+02
13104.5402   .5727E+00  12003.4540 10.5  9.5   .1746E+01
13103.9425   .2707E-01   4351.2680 15.5 16.5   .3694E+02
13103.8411   .1166E-02  13866.8870 20.5 20.5   .8576E+03
13103.4255   .5333E-03  10528.8470 13.5 12.5   .1875E+04
13102.8879   .1188E-03  21403.9790 30.5 29.5   .8419E+04
13102.0551   .8966E-01  20817.8320 22.5 23.5   .1115E+02
13101.4850   .1897E-03  18778.3860 22.5 22.5   .5272E+04
13101.3408   .7508E-01  12151.7540 21.5 20.5   .1332E+02
13101.1331   .1332E-04  13878.8260 19.5 20.5   .7507E+05
13101.0936   .4631E-03  17458.4520 20.5 19.5   .2159E+04
13100.8052   .8995E-01  20853.1460 21.5 22.5   .1112E+02
13100.0704   .6895E-02  13153.5590 13.5 13.5   .1450E+03
13099.8885   .1124E-05  21382.5630 33.5 34.5   .8901E+06
13099.6430   .1332E-02    187.5600  1.5  1.5   .7506E+03
13099.3426   .1332E-02    187.8190  1.5  1.5   .7506E+03
13098.1550   .7501E-01  12127.8280 22.5 21.5   .1333E+02
13097.8289   .1891E-03  18790.1300 22.5 22.5   .5287E+04
13097.1443   .1131E-02   1367.6860  7.5  7.5   .8844E+03
13096.9007   .3170E-04  15687.9450 30.5 30.5   .3154E+05
13096.8183   .7503E-01  12164.0710 21.5 20.5   .1333E+02
13096.6673   .1746E+00  15107.7160 16.5 17.5   .5726E+01
13096.5730   .2578E-04  17782.3230 28.5 27.5   .3879E+05
13096.2384   .1347E-04  16614.4130 24.5 24.5   .7422E+05
13095.2520   .1130E-02   1368.7820  7.5  7.5   .8846E+03
13094.8678   .8956E-01  20831.7110 22.5 23.5   .1117E+02
13094.8609   .1746E+00  15114.3250 16.5 17.5   .5727E+01
13094.2658   .2577E-02   1321.2750  8.5  8.5   .3881E+03
13094.0223   .1740E+00  15078.8460 17.5 18.5   .5748E+01
13094.0017   .2554E-04  15708.6660 29.5 29.5   .3916E+05
13092.5955   .1030E-02  15001.9170 10.5 11.5   .9705E+03
13092.3246   .7477E-01  12144.6400 22.5 21.5   .1337E+02
13092.2526   .8727E-04  10107.8170 18.5 17.5   .1146E+05
13091.0680   .1735E+00  15088.7290 17.5 18.5   .5764E+01
13090.4989   .1180E-02  19611.9540 20.5 19.5   .8472E+03
13089.9933   .2370E-03   1650.8100  9.5  8.5   .4219E+04
13089.5151   .4187E-04  22331.8100 34.5 34.5   .2388E+05
13088.8587   .2574E-02   1324.3140  8.5  8.5   .3884E+03
13087.9917   .3478E-04  22351.8610 33.5 33.5   .2875E+05
13087.7141   .1346E-04  16632.4200 24.5 24.5   .7432E+05
13087.2361   .1030E-02  15005.5270 10.5 11.5   .9713E+03
13087.2190   .1022E-04   9709.4780 22.5 21.5   .9786E+05
13086.8421   .1068E-04   1077.9240  6.5  7.5   .9361E+05
13086.6982   .2414E+00  12076.0620 16.5 15.5   .4143E+01
13084.9973   .2368E-03   1654.5980  9.5  8.5   .4223E+04
13084.4493   .4609E-03  17468.4460 20.5 19.5   .2170E+04
13084.3654   .1068E-04   1078.5740  6.5  7.5   .9364E+05
13083.9476   .2413E+00  12083.0970 16.5 15.5   .4145E+01
13082.1772   .1328E-04  13888.5510 19.5 20.5   .7529E+05
13082.0214   .1812E-03  21403.9790 30.5 30.5   .5519E+04
13081.7955   .2410E+00  12047.7790 17.5 16.5   .4150E+01
13081.7835   .1414E-03  21425.0840 29.5 29.5   .7074E+04
13080.1558   .1453E-02  19626.5720 19.5 19.5   .6882E+03
13080.0103   .5145E-05  10462.3370 24.5 25.5   .1944E+06
13077.7791   .2403E+00  12058.2870 17.5 16.5   .4162E+01
13076.8229   .2306E-02  19599.9430 20.5 20.5   .4336E+03
13076.1798   .2196E-07  15708.6660 29.5 30.5   .4553E+08
13075.6085   .8529E-04  13182.0490 12.5 13.5   .1172E+05
13075.0015   .8684E-04  10117.1610 18.5 17.5   .1152E+05
13074.2286   .7935E-04  12151.7540 21.5 21.5   .1260E+05
13072.9908   .2857E-01  16637.6610 23.5 24.5   .3500E+02
13072.9378   .3292E-04   4904.5360 16.5 16.5   .3038E+05
13072.8934   .7933E-04  12164.0710 21.5 21.5   .1261E+05
13072.6472   .9241E-05  15715.2480 30.5 29.5   .1082E+06
13071.1602   .2843E-01  16614.4130 24.5 25.5   .3517E+02
13070.8697   .1689E-02  17477.5310 15.5 14.5   .5921E+03
13070.7876   .1417E-05  29062.3410 43.5 44.5   .7055E+06
13070.6287   .4308E+00  18502.7990 17.5 16.5   .2321E+01
13070.3587   .1284E-02    288.8370  2.5  2.5   .7788E+03
13069.9401   .1284E-02    289.1100  2.5  2.5   .7789E+03
13069.4634   .7578E-06  22351.8610 33.5 34.5   .1320E+07
13069.0841   .1179E-03  21428.0060 30.5 29.5   .8482E+04
13068.9901   .2855E-01  16651.1440 23.5 24.5   .3502E+02
13068.6587   .3289E-04   4915.1480 16.5 16.5   .3040E+05
13068.5305   .4837E-02  13287.1630  1.5  1.5   .2068E+03
13068.3631   .4836E-02  13287.2020  1.5  1.5   .2068E+03
13067.9583   .8519E-04  13185.6710 12.5 13.5   .1174E+05
13067.3690   .1450E-02  19635.0850 19.5 19.5   .6895E+03
13066.9454   .4305E+00  18509.7330 17.5 16.5   .2323E+01
13066.0556   .3019E-04  22361.1220 34.5 33.5   .3312E+05
13065.6151   .2841E-01  16632.4200 24.5 25.5   .3520E+02
13065.2309   .2351E-04  19730.9230 28.5 29.5   .4254E+05
13064.4660   .2554E-02  12043.5280  9.5  9.5   .3915E+03
13064.2355   .2554E-02  12041.7220  9.5  9.5   .3915E+03
13064.0767   .4305E+00  18474.3630 18.5 17.5   .2323E+01
13062.7351   .8187E-01    608.2590  4.5  3.5   .1221E+02
13062.5473   .8187E-01    608.2630  4.5  3.5   .1221E+02
13062.0694   .1687E-02  17482.9580 15.5 14.5   .5929E+03
13061.7895   .4857E-05  23670.1620 38.5 37.5   .2059E+06
13061.4585   .4954E-02  13359.0510  2.5  2.5   .2018E+03
13061.1684   .4954E-02  13359.1960  2.5  2.5   .2019E+03
13060.9158   .2797E-06  21425.0840 29.5 30.5   .3575E+07
13059.0699   .2295E-02  19611.9540 20.5 20.5   .4358E+03
13058.5138   .4292E+00  18484.5210 18.5 17.5   .2330E+01
13057.7462   .2534E-04  15730.1500 29.5 29.5   .3947E+05
13057.1323   .3347E-02  11434.5110  7.5  6.5   .2987E+03
13056.7725   .1114E-05  21411.0490 33.5 34.5   .8980E+06
13055.3487   .3347E-02  11435.3840  7.5  6.5   .2988E+03
13055.0538   .8065E-07  19561.9450 34.5 34.5   .1240E+08
13053.5128   .4179E-03  12076.0620 16.5 16.5   .2393E+04
13053.1532   .1404E-03  21443.9360 29.5 29.5   .7122E+04
13053.0237   .9899E-03  15339.7890 11.5 12.5   .1010E+04
13052.9675   .4179E-03  12083.0970 16.5 16.5   .2393E+04
13051.8308   .3451E-04  22375.3450 33.5 33.5   .2898E+05
13050.6722   .3133E-04  15715.2480 30.5 30.5   .3191E+05
13050.5785   .7726E-04   5157.1050  9.5 10.5   .1294E+05
13050.4473   .4491E-02  13460.2680  3.5  3.5   .2227E+03
13050.1935   .1233E-03  19626.5720 19.5 20.5   .8107E+04
13050.0027   .4490E-02  13460.5980  3.5  3.5   .2227E+03
13048.3540   .1630E-02  13588.3150 14.5 13.5   .6136E+03
13048.2330   .7871E-04   5507.3280 10.5 11.5   .1270E+05
13047.8533   .4083E-05   1367.6860  7.5  8.5   .2449E+06
13047.5331   .7748E-01    543.5940  5.5  4.5   .1291E+02
13047.4480   .9526E-03   1693.3550  8.5  8.5   .1050E+04
13047.2164   .7247E-04   4840.2030  8.5  9.5   .1380E+05
13046.8963   .7747E-01    544.8260  5.5  4.5   .1291E+02
13046.5745   .9889E-03  15344.0980 11.5 12.5   .1011E+04
13046.4672   .5107E-05  10482.5670 24.5 25.5   .1958E+06
13045.4730   .1798E-03  21428.0060 30.5 30.5   .5563E+04
13045.3862   .6039E-05  23670.1620 38.5 38.5   .1656E+06
13045.0815   .2023E-02   1650.8100  9.5  9.5   .4943E+03
13044.9641   .7720E-04   5160.6910  9.5 10.5   .1295E+05
13044.6253   .9522E-03   1694.9690  8.5  8.5   .1050E+04
13044.5794   .2498E-01   4932.8940 15.5 16.5   .4004E+02
13044.3921   .4081E-05   1368.7820  7.5  8.5   .2451E+06
13044.2202   .4148E-04  22361.1220 34.5 34.5   .2411E+05
13043.9701   .2492E-01   4939.8360 15.5 16.5   .4013E+02
13043.3540   .2487E-01   4904.5360 16.5 17.5   .4021E+02
13042.7975   .7242E-04   4843.0760  8.5  9.5   .1381E+05
13042.4283   .5297E-05  23689.5220 37.5 37.5   .1888E+06
13042.2105   .2481E-01   4915.1480 16.5 17.5   .4031E+02
13041.3105   .7863E-04   5511.6870 10.5 11.5   .1272E+05
13040.6845   .8029E-07  19593.2640 34.5 34.5   .1246E+08
13040.0075   .7793E-04   5890.5040 11.5 12.5   .1283E+05
13038.4259   .1627E-02  13595.4070 14.5 13.5   .6146E+03
13038.3562   .6343E-04   4556.9230  7.5  8.5   .1576E+05
13038.3307   .2021E-02   1654.5980  9.5  9.5   .4948E+03
13036.0525   .1401E-06  23670.1620 38.5 39.5   .7139E+07
13036.0083   .1992E-04  24018.5590 30.5 31.5   .5021E+05
13035.9386   .1231E-03  19635.0850 19.5 20.5   .8125E+04
13035.7703   .2173E-07  15730.1500 29.5 30.5   .4602E+08
13035.6411   .7049E-03  18502.7990 17.5 17.5   .1419E+04
13035.1210   .3398E-04  19581.8780 33.5 34.5   .2943E+05
13035.0174   .6340E-04   4559.1520  7.5  8.5   .1577E+05
13034.7675   .3894E-02  13591.1280  4.5  4.5   .2568E+03
13034.3902   .1489E-04  19561.9450 34.5 35.5   .6714E+05
13034.1387   .3893E-02  13591.7220  4.5  4.5   .2569E+03
13033.3010   .7046E-03  18509.7330 17.5 17.5   .1419E+04
13031.7210   .1946E-03   2015.0480 10.5  9.5   .5139E+04
13031.6768   .7766E-04   5895.6960 11.5 12.5   .1288E+05
13031.3677   .2333E-04  19753.0610 28.5 29.5   .4286E+05
13031.2539   .1097E-02    429.3440  3.5  3.5   .9120E+03
13030.9091   .6762E-04  15204.3200 26.5 25.5   .1479E+05
13030.7409   .1096E-02    429.5270  3.5  3.5   .9120E+03
13030.6781   .1625E-03  18082.3210 22.5 23.5   .6154E+04
13029.9970   .7515E-06  22375.3450 33.5 34.5   .1331E+07
13029.5436   .2777E-06  21443.9360 29.5 30.5   .3601E+07
13029.4180   .2786E-01  13287.2020  1.5  0.5   .3590E+02
13029.3840   .2786E-01  13287.1630  1.5  0.5   .3590E+02
13026.9341   .3394E-04  19607.0150 33.5 34.5   .2946E+05
13026.0260   .8466E-06  23689.5220 37.5 38.5   .1181E+07
13025.7646   .7561E-04   6306.2110 12.5 13.5   .1323E+05
13025.4439   .1948E-03   2019.6490 10.5  9.5   .5132E+04
13024.4274   .1487E-04  19593.2640 34.5 35.5   .6725E+05
13024.2662   .4904E-04   4307.4950  6.5  7.5   .2039E+05
13021.8827   .4902E-04   4309.1500  6.5  7.5   .2040E+05
13016.1912   .1443E-03  15629.4810 18.5 18.5   .6929E+04
13015.9302   .7532E-04   6312.2880 12.5 13.5   .1328E+05
13015.4202   .3258E-02  13621.2490 13.5 13.5   .3070E+03
13014.8780   .5834E+00  12391.7620 10.5  9.5   .1714E+01
13013.7801   .3317E-02  13751.8290  5.5  5.5   .3015E+03
13013.6886   .5833E+00  12394.1210 10.5  9.5   .1714E+01
13012.9399   .3317E-02  13752.7650  5.5  5.5   .3015E+03
13012.6672   .4798E-05  23704.5300 38.5 37.5   .2084E+06
13012.5199   .5953E-02  13588.3150 14.5 14.5   .1680E+03
13011.9017   .1135E-05  27258.2680 39.5 40.5   .8810E+06
13010.6435   .1439E-03  15640.3400 18.5 18.5   .6951E+04
13010.4860   .2240E-03  15204.3200 26.5 26.5   .4463E+04
13008.8015   .1693E-03  15226.4280 25.5 25.5   .5907E+04
13008.2684   .3254E-02  13625.5650 13.5 13.5   .3073E+03
13008.0771   .1616E-03  18097.1850 22.5 23.5   .6190E+04
13007.3713   .3216E-03  14507.1640 21.5 20.5   .3110E+04
13006.0057   .5794E+00  12352.4930 11.5 10.5   .1726E+01
13005.5303   .9424E-03  15706.1560 12.5 13.5   .1061E+04
13005.4880   .1978E-04  24040.8740 30.5 31.5   .5056E+05
13005.3916   .7216E-04   6753.9760 13.5 14.5   .1386E+05
13005.2985   .2980E-04   4092.0570  5.5  6.5   .3355E+05
13004.4425   .2692E-04   5498.3560 17.5 17.5   .3715E+05
13003.8894   .5793E+00  12357.0970 11.5 10.5   .1726E+01
13003.7371   .2980E-04   4093.2140  5.5  6.5   .3356E+05
13002.5363   .1316E-05   1693.3550  8.5  9.5   .7600E+06
13000.8387   .5942E-02  13595.4070 14.5 14.5   .1683E+03
12999.8784   .3066E-05  22423.6310 28.5 28.5   .3261E+06
12999.7280   .6755E-01  19752.6100 27.5 26.5   .1480E+02
12999.7043   .5238E-05  23717.4940 37.5 37.5   .1909E+06
12999.6485   .2690E-04   5510.0850 17.5 17.5   .3718E+05
12998.5431   .6698E-04  15225.7290 26.5 25.5   .1493E+05
12998.3251   .3980E-03    288.8370  2.5  1.5   .2513E+04
12998.0919   .3980E-03    289.1100  2.5  1.5   .2513E+04
12997.9601   .1315E-05   1694.9690  8.5  9.5   .7606E+06
12997.9398   .9413E-03  15711.2030 12.5 13.5   .1062E+04
12997.2588   .8238E-01    824.5960  5.5  4.5   .1214E+02
12996.9276   .8238E-01    824.8800  5.5  4.5   .1214E+02
12996.6387   .6739E-01  19730.9230 28.5 27.5   .1484E+02
12996.5154   .2093E-01  13359.0510  2.5  1.5   .4778E+02
12996.4968   .2093E-01  13359.1960  2.5  1.5   .4778E+02
12993.9596   .7203E-04   6760.9880 13.5 14.5   .1388E+05
12992.3587   .8156E-03   2054.4110  9.5  9.5   .1226E+04
12992.0497   .5962E-05  23704.5300 38.5 38.5   .1677E+06
12991.5078   .6731E-01  19769.7620 27.5 26.5   .1486E+02
12990.4797   .1629E-02   2015.0480 10.5 10.5   .6138E+03
12988.4798   .8151E-03   2056.6140  9.5  9.5   .1227E+04
12988.3768   .5127E-06  15226.4280 25.5 26.5   .1950E+07
12988.3583   .1620E+00  15657.3140 17.5 18.5   .6174E+01
12987.2767   .3053E-05  22444.2570 28.5 28.5   .3275E+06
12986.9545   .2793E-02  13942.4460  6.5  6.5   .3581E+03
12986.2493   .3435E-05  18588.8950 32.5 31.5   .2911E+06
12986.2409   .1616E+00  15664.7430 17.5 18.5   .6190E+01
12986.0958   .6728E-01  19753.0610 28.5 27.5   .1486E+02
12985.8799   .2792E-02  13943.7950  6.5  6.5   .3581E+03
12985.7871   .1611E+00  15629.4810 18.5 19.5   .6208E+01
12985.5577   .4599E-05  11277.0580 25.5 26.5   .2174E+06
12985.3874   .3197E-03  14521.9280 21.5 20.5   .3127E+04
12984.3485   .7940E-01    767.4800  6.5  5.5   .1260E+02
12984.2962   .1386E-06  23704.5300 38.5 39.5   .7213E+07
12983.5290   .7939E-01    769.2370  6.5  5.5   .1260E+02
12983.4598   .9098E-03    608.2630  4.5  4.5   .1099E+04
12982.8680   .9097E-03    608.2590  4.5  4.5   .1099E+04
12982.4465   .1606E+00  15640.3400 18.5 19.5   .6226E+01
12982.4465   .7322E-03  14532.0900 20.5 20.5   .1366E+04
12982.3285   .1075E-02  14507.1640 21.5 21.5   .9303E+03
12982.2678   .1627E-02   2019.6490 10.5 10.5   .6146E+03
12981.9104   .9764E-05   3910.6320  4.5  5.5   .1024E+06
12981.4890   .1682E-03  15242.7810 25.5 25.5   .5946E+04
12981.0255   .9763E-05   3911.3750  4.5  5.5   .1024E+06
12979.5862   .8641E-04  13621.2490 13.5 14.5   .1157E+05
12979.0857   .8366E-06  23717.4940 37.5 38.5   .1195E+07
12978.7790   .6831E-04   7233.2880 14.5 15.5   .1464E+05
12977.9080   .1365E-01  22445.6000 27.5 28.5   .7326E+02
12977.1078   .2276E-01   5525.6530 16.5 17.5   .4393E+02
12976.4054   .2276E-01   5533.5470 16.5 17.5   .4394E+02
12976.0079   .2268E-01   5498.3560 17.5 18.5   .4409E+02
12975.1339   .1356E-01  22423.6310 28.5 29.5   .7375E+02
12974.9503   .4777E-04  19752.6100 27.5 27.5   .2093E+05
12974.4670   .2223E-03  15225.7290 26.5 26.5   .4499E+04
12974.4367   .2267E-01   5510.0850 17.5 18.5   .4410E+02
12970.6829   .8629E-04  13625.5650 13.5 14.5   .1159E+05
12969.9661   .1363E-01  22461.5680 27.5 28.5   .7335E+02
12969.3957   .4773E-04  19769.7620 27.5 27.5   .2095E+05
12968.6133   .1627E-03   2413.6140 11.5 10.5   .6145E+04
12968.1171   .1125E-05  27290.6420 39.5 40.5   .8890E+06
12967.6680   .3723E-03  20897.5480 26.5 25.5   .2686E+04
12966.8657   .2205E-02  12394.1210 10.5 10.5   .4535E+03
12966.7378   .2205E-02  12391.7620 10.5 10.5   .4535E+03
12966.1240   .1345E-01  12998.3650 26.5 25.5   .7434E+02
12965.7541   .6817E-04   7241.2640 14.5 15.5   .1467E+05
12964.8461   .1354E-01  22444.2570 28.5 29.5   .7387E+02
12964.5687   .7285E-03  14542.7460 20.5 20.5   .1373E+04
12964.2812   .1850E-01  20468.3320 31.5 30.5   .5404E+02
12964.2576   .4803E-03  11012.4870 14.5 13.5   .2082E+04
12964.1618   .1343E-01  12976.8320 27.5 26.5   .7443E+02
12962.8893   .7040E+00  13460.5980  3.5  4.5   .1421E+01
12962.8859   .7040E+00  13460.2680  3.5  4.5   .1421E+01
12962.2204   .6507E+00  13359.1960  2.5  3.5   .1537E+01
12962.1851   .6507E+00  13359.0510  2.5  3.5   .1537E+01
12962.0926   .1851E-01  20447.8940 32.5 31.5   .5404E+02
12960.9399   .1626E-03   2419.0900 11.5 10.5   .6152E+04
12960.0981   .1812E-01  13460.2680  3.5  2.5   .5518E+02
12959.9704   .1344E-01  13016.7700 26.5 25.5   .7441E+02
12959.9116   .1812E-01  13460.5980  3.5  2.5   .5518E+02
12958.1797   .7501E+00  13552.4210  2.5  3.5   .1333E+01
12958.0537   .7501E+00  13552.6610  2.5  3.5   .1333E+01
12957.6557   .1068E-02  14521.9280 21.5 21.5   .9360E+03
12957.4138   .5091E-06  15242.7810 25.5 26.5   .1964E+07
12957.4021   .1213E-04  14532.0900 20.5 21.5   .8247E+05
12956.8093   .7194E+00  13591.1280  4.5  5.5   .1390E+01
12956.7505   .7194E+00  13591.7220  4.5  5.5   .1390E+01
12956.3979   .1342E-01  13000.7010 27.5 26.5   .7452E+02
12955.0514   .7499E+00  13670.8100  3.5  4.5   .1333E+01
12955.0195   .5010E+00  13287.2020  1.5  2.5   .1996E+01
12954.9808   .5010E+00  13287.1630  1.5  2.5   .1996E+01
12954.9003   .7499E+00  13670.9940  3.5  4.5   .1333E+01
12954.7139   .2594E-07   3763.1080  3.5  4.5   .3855E+08
12954.4101   .1848E-01  20490.2510 31.5 30.5   .5413E+02
12954.3513   .2594E-07   3763.5250  3.5  4.5   .3855E+08
12954.3446   .4795E-03  11017.8610 14.5 13.5   .2085E+04
12953.8696   .2338E-02  14162.9400  7.5  7.5   .4277E+03
12953.3577   .1839E-06  18626.5280 30.5 30.5   .5439E+07
12953.1126   .7240E+00  13467.2530  1.5  2.5   .1381E+01
12953.0388   .7240E+00  13467.4700  1.5  2.5   .1381E+01
12952.5370   .2337E-02  14164.7670  7.5  7.5   .4278E+03
12951.1175   .2847E-06   2054.4110  9.5 10.5   .3513E+07
12950.7937   .3300E-06  25856.8800 35.5 36.5   .3030E+07
12950.5739   .2935E-02  11722.4710  8.5  7.5   .3407E+03
12950.0270   .4563E-05  11298.5150 25.5 26.5   .2191E+06
12949.7821   .1847E-01  20475.4970 32.5 31.5   .5414E+02
12949.7653   .8903E-03  16100.5500 13.5 14.5   .1123E+04
12948.4671   .1325E-03  22804.3820 25.5 26.5   .7548E+04
12948.0194   .2934E-02  11723.7810  8.5  7.5   .3409E+03
12945.8715   .6426E-04   7743.5710 15.5 16.5   .1556E+05
12945.3033   .2844E-06   2056.6140  9.5 10.5   .3516E+07
12944.9563   .4606E-03  20920.2600 25.5 25.5   .2171E+04
12944.5054   .3405E-05  18613.1830 32.5 31.5   .2937E+06
12943.8970   .7381E+00  13821.8080  4.5  5.5   .1355E+01
12943.8970   .6381E-03  20897.5480 26.5 26.5   .1567E+04
12943.7529   .7380E+00  13821.8550  4.5  5.5   .1355E+01
12943.7227   .7164E+00  13751.8290  5.5  6.5   .1396E+01
12943.5702   .7180E+00  13752.7650  5.5  6.5   .1393E+01
12942.6285   .9567E-05  12998.3650 26.5 26.5   .1045E+06
12941.6534   .1016E-04  20468.3320 31.5 31.5   .9841E+05
12941.5546   .1482E-02  14057.6220 15.5 14.5   .6745E+03
12941.5043   .3708E-03  20916.3410 26.5 25.5   .2697E+04
12941.1508   .1831E-06  18652.2160 30.5 30.5   .5461E+07
12941.0352   .2424E+00  12650.0490 17.5 16.5   .4125E+01
12940.9749   .8891E-03  16106.3760 13.5 14.5   .1125E+04
12940.3284   .9564E-05  13016.7700 26.5 26.5   .1046E+06
12939.6802   .6222E+00  13415.8860  0.5  1.5   .1607E+01
12939.6785   .6222E+00  13416.0140  0.5  1.5   .1607E+01
12937.9838   .2423E+00  12657.9590 17.5 16.5   .4127E+01
12937.5518   .1032E-04  17362.4610 25.5 25.5   .9686E+05
12936.8370   .1206E-04  14542.7460 20.5 21.5   .8292E+05
12936.4955   .2418E+00  12622.7650 18.5 17.5   .4135E+01
12935.0276   .1015E-04  20490.2510 31.5 31.5   .9852E+05
12934.9322   .1224E-03  18154.2390 25.5 24.5   .8171E+04
12932.4624   .1493E-02  18647.4240 29.5 30.5   .6697E+03
12932.1162   .2416E+00  12634.3140 18.5 17.5   .4138E+01
12931.9004   .7064E-03   2450.3260 10.5 10.5   .1416E+04
12931.1594   .1477E-02  18626.5280 30.5 31.5   .6773E+03
12931.1426   .6396E-04   7752.5630 15.5 16.5   .1563E+05
12930.4837   .1340E-02   2413.6140 11.5 11.5   .7462E+03
12930.2512   .1480E-02  14065.6180 15.5 14.5   .6757E+03
12930.2077   .2191E-04   6122.5210 18.5 18.5   .4565E+05
12929.7077   .4777E-03    429.3440  3.5  2.5   .2093E+04
12929.6692   .4777E-03    429.5270  3.5  2.5   .2093E+04
12928.4804   .1031E-04  17381.5320 25.5 25.5   .9700E+05
12928.2530   .2679E-06  26862.4040 41.5 41.5   .3733E+07
12927.8852   .7482E-03    824.8800  5.5  5.5   .1337E+04
12927.2333   .7481E-03    824.5960  5.5  5.5   .1337E+04
12926.8472   .7058E-03   2453.1820 10.5 10.5   .1417E+04
12926.7419   .8297E-01   1077.9240  6.5  5.5   .1205E+02
12926.7235   .7510E-01  12884.7120 22.5 21.5   .1331E+02
12926.3340   .4044E-04  21459.5060 23.5 23.5   .2473E+05
12926.2572   .8297E-01   1078.5740  6.5  5.5   .1205E+02
12925.9847   .1317E-03  22821.0070 25.5 26.5   .7591E+04
12925.7608   .1492E-02  18667.6060 29.5 30.5   .6704E+03
12925.0272   .2189E-04   6135.4190 18.5 18.5   .4569E+05
12924.8434   .7192E+00  14004.8320  5.5  6.5   .1390E+01
12924.7347   .7192E+00  14004.6670  5.5  6.5   .1390E+01
12924.5108   .1811E-04   3649.2040  2.5  3.5   .5522E+05
12924.5025   .1811E-04   3649.3900  2.5  3.5   .5522E+05
12923.7456   .7502E-01  12861.3150 23.5 22.5   .1333E+02
12923.4349   .7043E+00  13942.4460  6.5  7.5   .1420E+01
12923.2578   .4580E-03  20934.5880 25.5 25.5   .2183E+04
12923.1626   .7043E+00  13943.7950  6.5  7.5   .1420E+01
12922.9270   .1475E-02  18652.2160 30.5 31.5   .6781E+03
12921.8463   .7505E-01  12898.0400 22.5 21.5   .1332E+02
12921.1850   .1623E-04  20920.2600 25.5 26.5   .6161E+05
12920.6990   .1338E-02   2419.0900 11.5 11.5   .7473E+03
12919.4734   .1587E-01  13591.1280  4.5  3.5   .6302E+02
12918.9926   .1587E-01  13591.7220  4.5  3.5   .6302E+02
12917.5153   .7477E-01  12879.2890 23.5 22.5   .1337E+02
12916.9095   .4038E-04  21474.3130 23.5 23.5   .2476E+05
12915.6929   .8096E-01   1026.7540  7.5  6.5   .1235E+02
12915.4760   .6338E-03  20916.3410 26.5 26.5   .1578E+04
12914.9555   .8139E-04  10762.4810 19.5 18.5   .1229E+05
12914.7553   .2479E-01  17385.2590 24.5 25.5   .4034E+02
12914.6802   .8094E-01   1029.1150  7.5  6.5   .1235E+02
12914.6468   .9785E-05  10484.9680 23.5 22.5   .1022E+06
12914.3966   .9395E-05  16630.7360 31.5 30.5   .1064E+06
12914.1814   .1954E-02  14413.1740  8.5  8.5   .5117E+03
12913.2556   .3273E-06  25884.7670 35.5 36.5   .3055E+07
12913.2539   .4758E-06  25256.1240 37.5 37.5   .2102E+07
12912.9870   .2471E-01  17362.4610 25.5 26.5   .4048E+02
12912.9820   .1122E-02  20197.7200 21.5 20.5   .8914E+03
12912.5717   .1954E-02  14415.5400  8.5  8.5   .5118E+03
12910.3323   .2478E-01  17399.6800 24.5 25.5   .4036E+02
12910.1622   .2950E-02  14089.0150 14.5 14.5   .3389E+03
12909.3120   .1219E-03  18169.5870 25.5 24.5   .8204E+04
12909.2320   .5737E-03  26881.4250 40.5 41.5   .1743E+04
12909.2120   .3773E-03  12650.0490 17.5 17.5   .2651E+04
12908.4719   .3772E-03  12657.9590 17.5 17.5   .2651E+04
12908.2236   .5773E-03  26862.4040 41.5 42.5   .1732E+04
12907.6386   .5208E-02  14057.6220 15.5 15.5   .1920E+03
12907.0420   .5880E+00  12772.0720 11.5 10.5   .1701E+01
12906.9521   .2468E-01  17381.5320 25.5 26.5   .4051E+02
12906.5805   .6004E-04   8284.2300 16.5 17.5   .1665E+05
12906.3405   .1879E+00  19471.6270 23.5 22.5   .5321E+01
12906.0540   .2663E-06  26898.1860 41.5 41.5   .3754E+07
12905.6208   .5879E+00  12775.0350 11.5 10.5   .1701E+01
12903.8884   .2064E-01   6148.8390 17.5 18.5   .4844E+02
12902.7409   .2064E-01   6157.7040 17.5 18.5   .4845E+02
12902.7276   .2058E-01   6122.5210 18.5 19.5   .4859E+02
12902.1331   .1876E+00  19448.0130 24.5 23.5   .5331E+01
12901.8068   .2947E-02  14094.0620 14.5 14.5   .3394E+03
12901.7601   .8437E-01  21484.0810 22.5 23.5   .1185E+02
12900.9094   .2057E-01   6135.4190 18.5 19.5   .4860E+02
12900.7346   .6627E+00  13415.8860  0.5  0.5   .1509E+01
12900.5848   .1381E-03   2846.0750 12.5 11.5   .7242E+04
12900.5315   .6627E+00  13416.0140  0.5  0.5   .1509E+01
12900.3500   .7304E-04  12884.7120 22.5 22.5   .1369E+05
12900.0954   .1877E+00  19484.2430 23.5 22.5   .5326E+01
12899.0534   .5835E+00  12735.2270 12.5 11.5   .1714E+01
12899.0434   .1192E-03  16205.8880 19.5 19.5   .8391E+04
12898.7638   .7303E-04  12898.0400 22.5 22.5   .1369E+05
12898.6407   .1162E+01  13287.1630  1.5  1.5   .8607E+00
12898.5808   .1162E+01  13287.2020  1.5  1.5   .8607E+00
12898.0749   .8399E-01  21459.5060 23.5 24.5   .1191E+02
12897.9617   .6967E+00  14219.3430  6.5  7.5   .1435E+01
12897.9151   .6967E+00  14218.8940  6.5  7.5   .1435E+01
12897.2296   .1613E-04  20934.5880 25.5 26.5   .6198E+05
12896.9401   .3047E-04  16630.7360 31.5 31.5   .3281E+05
12896.6356   .5833E+00  12740.6200 12.5 11.5   .1714E+01
12896.2048   .8430E-01  21495.0170 22.5 23.5   .1186E+02
12895.9635   .8115E-04  10772.8010 19.5 18.5   .1232E+05
12895.8005   .6851E+00  14162.9400  7.5  8.5   .1460E+01
12895.7490   .1510E-03  18754.2470 23.5 24.5   .6621E+04
12895.4479   .1119E-02  20210.6660 21.5 20.5   .8938E+03
12895.3797   .6851E+00  14164.7670  7.5  8.5   .1460E+01
12894.6196   .4300E-07  24034.6610 33.5 33.5   .2326E+08
12894.4815   .5186E-02  14065.6180 15.5 15.5   .1928E+03
12894.3817   .4733E-06  25287.5110 37.5 37.5   .2113E+07
12893.9144   .1447E-06  22331.8100 34.5 35.5   .6909E+07
12893.8978   .2480E-04  16651.2340 30.5 30.5   .4032E+05
12893.7964   .1874E+00  19464.8720 24.5 23.5   .5337E+01
12893.7714   .1101E-07   2450.3260 10.5 11.5   .9085E+08
12893.6783   .4832E-03  25275.7000 36.5 37.5   .2070E+04
12893.4804   .5723E-03  26910.7600 40.5 41.5   .1747E+04
12893.0115   .1191E-03  16217.7370 19.5 19.5   .8399E+04
12892.4745   .6133E-04   3568.5220  1.5  2.5   .1631E+05
12892.2999   .6133E-04   3568.4710  1.5  2.5   .1631E+05
12892.1719   .4883E-03  25256.1240 37.5 38.5   .2048E+04
12891.4105   .1376E-03   2852.4820 12.5 11.5   .7269E+04
12890.3018   .5743E-03  26898.1860 41.5 42.5   .1741E+04
12890.2104   .8389E-01  21474.3130 23.5 24.5   .1192E+02
12890.0957   .5989E-04   8294.2710 16.5 17.5   .1670E+05
12888.4406   .1430E+00  13467.2530  1.5  1.5   .6991E+01
12888.0950   .1430E+00  13467.4700  1.5  1.5   .6991E+01
12887.1131   .1394E-02  20223.5890 20.5 20.5   .7175E+03
12886.6197   .9720E-05  10500.1550 23.5 22.5   .1029E+06
12886.6065   .1097E-07   2453.1820 10.5 11.5   .9116E+08
12885.9653   .2084E-04  20558.6960 29.5 30.5   .4798E+05
12885.7112   .1586E-02  17977.5020 16.5 15.5   .6307E+03
12885.5983   .8398E-03  16522.4840 14.5 15.5   .1191E+04
12884.8725   .4084E-05  12115.5360 26.5 27.5   .2448E+06
12883.9858   .2162E-02  20197.7200 21.5 21.5   .4626E+03
12883.1706   .4787E+00  13359.0510  2.5  2.5   .2089E+01
12882.9481   .4787E+00  13359.1960  2.5  2.5   .2089E+01
12882.4949   .4394E+00  19052.7280 18.5 17.5   .2276E+01
12880.7803   .4811E-03  25301.1120 36.5 37.5   .2079E+04
12880.4683   .4516E-03  18107.0430 21.5 20.5   .2214E+04
12878.5187   .1785E-03  19471.6270 23.5 23.5   .5602E+04
12878.3793   .4391E+00  19060.4450 18.5 17.5   .2277E+01
12878.2400   .4289E-07  24061.1800 33.5 33.5   .2332E+08
12876.6244   .4871E-03  25287.5110 37.5 38.5   .2053E+04
12876.4419   .4826E-07  16651.2340 30.5 31.5   .2072E+08
12876.3159   .4385E+00  19025.2490 19.5 18.5   .2281E+01
12876.2462   .8582E-04  14089.0150 14.5 15.5   .1165E+05
12875.7603   .1580E-02  17983.6720 16.5 15.5   .6331E+03
12875.5630   .8366E-03  16529.1240 14.5 15.5   .1195E+04
12874.4255   .1784E-03  19484.2430 23.5 23.5   .5606E+04
12874.2133   .3007E-03  24055.0670 32.5 33.5   .3326E+04
12874.0326   .1376E-01  13751.8290  5.5  4.5   .7268E+02
12873.2071   .1391E-02  20232.9080 20.5 20.5   .7190E+03
12873.1292   .1376E-01  13752.7650  5.5  4.5   .7269E+02
12872.1297   .1491E+00  16232.8020 18.5 19.5   .6708E+01
12872.0833   .2933E-03  24034.6610 33.5 34.5   .3409E+04
12871.7170   .1505E-03  18770.1140 23.5 24.5   .6646E+04
12870.7062   .9289E-05  16659.1140 31.5 30.5   .1077E+06
12870.2257   .4381E+00  19036.3290 19.5 18.5   .2283E+01
12869.6773   .1490E+00  16241.0720 18.5 19.5   .6711E+01
12869.6325   .1486E+00  16205.8880 19.5 20.5   .6729E+01
12868.0886   .6808E-01  13552.4210  2.5  2.5   .1469E+02
12867.7044   .6792E-01  13552.6610  2.5  2.5   .1472E+02
12867.6166   .1633E-02  14692.9290  9.5  9.5   .6122E+03
12866.1030   .6192E-03   2880.5570 11.5 11.5   .1615E+04
12866.0368   .8548E-04  14094.0620 14.5 15.5   .1170E+05
12865.8845   .1482E+00  16217.7370 19.5 20.5   .6749E+01
12865.7089   .1633E-02  14695.8910  9.5  9.5   .6124E+03
12865.2205   .6178E-03   1078.5740  6.5  6.5   .1619E+04
12865.1229   .1122E-02   2846.0750 12.5 12.5   .8913E+03
12864.9540   .2155E-02  20210.6660 21.5 21.5   .4640E+03
12864.5219   .6177E-03   1077.9240  6.5  6.5   .1619E+04
12863.3219   .6723E+00  14464.0330  7.5  8.5   .1487E+01
12863.2805   .6723E+00  14464.8310  7.5  8.5   .1487E+01
12863.2325   .3001E-03  24076.1880 32.5 33.5   .3332E+04
12862.4530   .4493E-03  18117.9120 21.5 20.5   .2226E+04
12862.1468   .1917E-02  12775.0350 11.5 11.5   .5217E+03
12862.1402   .1917E-02  12772.0720 11.5 11.5   .5217E+03
12861.6570   .2687E-04  18647.4240 29.5 28.5   .3721E+05
12861.1491   .2545E+00  13460.2680  3.5  3.5   .3930E+01
12860.8496   .5596E-04   8854.6240 17.5 18.5   .1787E+05
12860.6924   .6632E+00  14413.1740  8.5  9.5   .1508E+01
12860.6378   .2544E+00  13460.5980  3.5  3.5   .3930E+01
12860.0969   .6631E+00  14415.5400  8.5  9.5   .1508E+01
12859.7660   .6172E-03   2884.1270 11.5 11.5   .1620E+04
12858.4776   .2920E-03  24061.1800 33.5 34.5   .3424E+04
12858.1170   .1138E-03  20223.5890 20.5 21.5   .8789E+04
12857.0620   .2967E-02  21610.7600 35.5 34.5   .3370E+03
12856.1312   .2460E-04  16673.6890 30.5 30.5   .4065E+05
12855.4997   .2965E-02  21591.1340 36.5 35.5   .3373E+03
12855.1922   .3082E-03  15185.9030 22.5 21.5   .3245E+04
12853.6600   .1117E-02   2852.4820 12.5 12.5   .8949E+03
12852.3397   .4477E-03    608.2590  4.5  3.5   .2233E+04
12852.0060   .4477E-03    608.2630  4.5  3.5   .2234E+04
12851.2080   .8354E-01   1367.6860  7.5  6.5   .1197E+02
12850.8149   .2068E-04  20581.7970 29.5 30.5   .4835E+05
12850.5621   .8353E-01   1368.7820  7.5  6.5   .1197E+02
12850.2533   .1778E-04   6776.3190 19.5 19.5   .5625E+05
12849.8519   .1431E-06  22361.1220 34.5 35.5   .6989E+07
12849.8321   .6676E-04  16029.8200 27.5 26.5   .1498E+05
12849.2937   .1349E+01  13467.2530  1.5  0.5   .7415E+00
12849.1500   .1349E+01  13467.4700  1.5  0.5   .7415E+00
12849.0360   .3011E-04  16659.1140 31.5 31.5   .3321E+05
12848.8362   .6503E-03  19052.7280 18.5 18.5   .1538E+04
12847.3914   .4051E-05  12138.2080 26.5 27.5   .2468E+06
12846.1104   .6500E-03  19060.4450 18.5 18.5   .1539E+04
12845.0111   .2962E-02  21637.4390 35.5 34.5   .3377E+03
12845.0012   .1286E-06  20569.7560 35.5 35.5   .7775E+07
12844.6761   .1776E-04   6790.4090 19.5 19.5   .5630E+05
12842.7126   .1135E-03  20232.9080 20.5 21.5   .8810E+04
12842.5608   .5568E-04   8865.7460 17.5 18.5   .1796E+05
12841.6650   .8209E-01   1321.2750  8.5  7.5   .1218E+02
12841.2790   .2958E-02  21624.1220 36.5 35.5   .3380E+03
12840.4527   .8207E-01   1324.3140  8.5  7.5   .1218E+02
12839.9943   .1188E-03  22265.7600 31.5 30.5   .8416E+04
12839.9052   .4228E-01  13670.8100  3.5  3.5   .2365E+02
12839.6067   .4228E-01  13670.9940  3.5  3.5   .2365E+02
12836.8551   .2569E-02  12041.7220  9.5  8.5   .3892E+03
12835.8745   .1305E-05  21610.7600 35.5 35.5   .7662E+06
12834.4623   .4772E-07  16673.6890 30.5 31.5   .2095E+08
12833.4276   .2568E-02  12043.5280  9.5  8.5   .3894E+03
12832.3602   .1544E+00  13591.1280  4.5  4.5   .6475E+01
12831.5350   .3071E-03  15201.7520 22.5 21.5   .3257E+04
12831.4313   .1548E+00  13591.7220  4.5  4.5   .6461E+01
12830.9981   .9929E-03  15185.9030 22.5 22.5   .1007E+04
12830.8862   .6890E-03  15210.2080 21.5 21.5   .1451E+04
12830.6408   .3747E-07   2880.5570 11.5 12.5   .2669E+08
12830.0167   .1283E-06  20601.9430 35.5 35.5   .7794E+07
12829.9311   .2120E-03  16029.8200 27.5 27.5   .4716E+04
12828.0725   .1622E-03  16051.5800 26.5 26.5   .6165E+04
12827.9622   .1304E-05  21637.4390 35.5 35.5   .7671E+06
12827.8832   .1362E-02  14554.6740 16.5 15.5   .7340E+03
12827.5836   .1187E-03   3311.9480 13.5 12.5   .8424E+04
12827.3976   .2667E-04  18667.6060 29.5 28.5   .3750E+05
12826.7311   .8420E+00  13359.0510  2.5  1.5   .1188E+01
12826.6060   .8420E+00  13359.1960  2.5  1.5   .1188E+01
12825.2287   .9439E-04  20589.5300 34.5 35.5   .1059E+05
12824.7467   .1859E-01   6801.8250 18.5 19.5   .5380E+02
12824.5460   .5508E-04  20569.7560 35.5 36.5   .1816E+05
12823.8304   .3134E-04  23294.5540 35.5 34.5   .3191E+05
12823.6248   .1853E-01   6776.3190 19.5 20.5   .5396E+02
12823.3863   .1858E-01   6811.7000 18.5 19.5   .5382E+02
12823.2580   .1183E-01  13942.4460  6.5  5.5   .8454E+02
12822.0146   .3742E-07   2884.1270 11.5 12.5   .2673E+08
12821.8140   .1183E-01  13943.7950  6.5  5.5   .8456E+02
12821.5443   .1853E-01   6790.4090 19.5 20.5   .5398E+02
12820.9507   .6456E+00  14739.5950  8.5  9.5   .1549E+01
12820.7962   .6456E+00  14740.8040  8.5  9.5   .1549E+01
12819.4579   .1810E-03  22265.7600 31.5 31.5   .5525E+04
12819.1423   .1427E-03  22286.6110 30.5 30.5   .7007E+04
12818.0066   .6388E+00  14692.9290  9.5 10.5   .1565E+01
12817.2112   .6387E+00  14695.8910  9.5 10.5   .1566E+01
12816.8809   .2937E-06  24725.5620 39.5 40.5   .3405E+07
12816.8054   .1182E-03   3319.3390 13.5 12.5   .8458E+04
12816.4932   .9426E-04  20615.4660 34.5 35.5   .1061E+05
12815.7785   .6626E-04  16052.3410 27.5 26.5   .1509E+05
12815.1591   .1360E-02  14563.6000 16.5 15.5   .7355E+03
12814.6811   .1693E-05  30115.1070 44.5 45.5   .5905E+06
12814.0044   .5486E-04  20601.9430 35.5 36.5   .1823E+05
12813.9469   .1368E-02  15001.9170 10.5 10.5   .7310E+03
12812.8548   .7870E-03  16971.4230 15.5 16.5   .1271E+04
12811.7941   .2428E-02   3649.2040  2.5  2.5   .4119E+03
12811.7218   .1368E-02  15005.5270 10.5 10.5   .7312E+03
12811.4838   .6853E-03  15221.8040 21.5 21.5   .1459E+04
12811.3803   .2428E-02   3649.3900  2.5  2.5   .4119E+03
12811.2868   .2473E-02   3568.4710  1.5  1.5   .4043E+03
12811.0323   .2467E-02   3568.5220  1.5  1.5   .4053E+03
12810.7860   .2100E-02   3763.1080  3.5  3.5   .4762E+03
12810.6317   .4367E-03  11529.9770 15.5 14.5   .2290E+04
12810.1902   .2100E-02   3763.5250  3.5  3.5   .4763E+03
12808.6277   .5177E-04   9454.0780 18.5 19.5   .1932E+05
12808.1715   .3483E-06  16051.5800 26.5 27.5   .2871E+07
12807.2444   .1746E-02   3910.6320  4.5  4.5   .5727E+03
12806.6932   .1095E-04  15210.2080 21.5 22.5   .9136E+05
12806.4471   .1746E-02   3911.3750  4.5  4.5   .5728E+03
12805.5301   .4262E-04  23294.5540 35.5 35.5   .2346E+05
12805.1250   .1179E-03  22290.6680 31.5 30.5   .8482E+04
12804.5739   .9865E-03  15201.7520 22.5 22.5   .1014E+04
12804.0869   .3012E-01  13821.8080  4.5  4.5   .3320E+02
12804.0049   .3012E-01  13821.8550  4.5  4.5   .3320E+02
12803.9491   .3562E-04  23314.4350 34.5 34.5   .2807E+05
12803.1440   .1244E+01  13552.4210  2.5  1.5   .8041E+00
12803.0325   .1244E+01  13552.6610  2.5  1.5   .8041E+00
12801.5374   .7856E-03  16978.9070 15.5 16.5   .1273E+04
12800.3441   .1427E-02   4092.0570  5.5  5.5   .7008E+03
12799.3280   .1427E-02   4093.2140  5.5  5.5   .7009E+03
12799.2723   .4359E-03  11536.1660 15.5 14.5   .2294E+04
12799.1970   .1611E-03  16068.9220 26.5 26.5   .6207E+04
12798.6071   .1456E-06  22286.6110 30.5 31.5   .6866E+07
12797.8354   .2693E-02  14584.7220 15.5 15.5   .3713E+03
12796.6445   .1026E+00  13751.8290  5.5  5.5   .9746E+01
12795.9860   .5142E-03   1368.7820  7.5  7.5   .1945E+04
12795.6585   .4600E-02  14554.6740 16.5 16.5   .2174E+03
12795.2540   .5142E-03   1367.6860  7.5  7.5   .1945E+04
12795.1721   .1023E+00  13752.7650  5.5  5.5   .9771E+01
12794.9969   .5473E-03   3344.5360 12.5 12.5   .1827E+04
12794.4254   .9507E-03   3311.9480 13.5 13.5   .1052E+04
12792.8111   .5927E+00  13182.0490 12.5 11.5   .1687E+01
12792.1498   .2103E-03  16052.3410 27.5 27.5   .4755E+04
12791.1432   .5926E+00  13185.6710 12.5 11.5   .1688E+01
12789.5314   .1417E-03  22306.2630 30.5 30.5   .7056E+04
12789.4545   .1161E-02   4307.4950  6.5  6.5   .8616E+03
12789.2189   .2435E+00  13251.2200 18.5 17.5   .4107E+01
12788.5007   .5161E-04   9466.3070 18.5 19.5   .1938E+05
12788.2259   .2689E-02  14590.5350 15.5 15.5   .3719E+03
12788.2046   .1158E-02   4309.1500  6.5  6.5   .8637E+03
12787.2690   .5467E-03   3348.8760 12.5 12.5   .1829E+04
12785.8527   .2428E+00  13260.0290 18.5 17.5   .4118E+01
12785.6483   .1048E-05  23314.4350 34.5 35.5   .9544E+06
12785.4668   .5897E+00  13147.3340 13.5 12.5   .1696E+01
12785.0025   .2425E+00  13224.8170 19.5 18.5   .4123E+01
12784.5218   .1088E-04  15221.8040 21.5 22.5   .9189E+05
12782.7335   .5881E+00  13153.5590 13.5 12.5   .1701E+01
12781.8755   .1021E+01  13460.2680  3.5  2.5   .9791E+00
12781.8297   .1795E-03  22290.6680 31.5 31.5   .5570E+04
12781.6238   .1021E+01  13460.5980  3.5  2.5   .9791E+00
12781.1875   .9487E-03   3319.3390 13.5 13.5   .1054E+04
12780.9996   .3099E-04  23324.6290 35.5 34.5   .3227E+05
12780.9865   .4579E-02  14563.6000 16.5 16.5   .2184E+03
12780.2496   .2423E+00  13237.4270 19.5 18.5   .4126E+01
12778.0575   .3603E-05  12976.8320 27.5 28.5   .2776E+06
12775.5689   .3457E-06  16068.9220 26.5 27.5   .2893E+07
12774.8914   .4794E-02  13467.2530  1.5  2.5   .2086E+03
12774.7510   .4794E-02  13467.4700  1.5  2.5   .2086E+03
12774.1095   .9412E-03   4556.9230  7.5  7.5   .1062E+04
12774.0230   .9853E-04  16807.3390 20.5 20.5   .1015E+05
12772.6097   .9410E-03   4559.1520  7.5  7.5   .1063E+04
12771.1494   .7766E-05  18131.8470 26.5 26.5   .1288E+06
12770.7709   .6182E+00  15045.0930  9.5 10.5   .1618E+01
12770.6779   .8423E-01   1693.3550  8.5  7.5   .1187E+02
12770.4805   .6182E+00  15046.7690  9.5 10.5   .1618E+01
12769.8965   .1182E-01  13415.8860  0.5  1.5   .8463E+02
12769.8623   .8422E-01   1694.9690  8.5  7.5   .1187E+02
12769.7889   .1182E-01  13416.0140  0.5  1.5   .8464E+02
12768.8135   .1763E-02  13552.4210  2.5  3.5   .5671E+03
12768.7548   .1763E-02  13552.6610  2.5  3.5   .5671E+03
12768.1466   .1677E-05  30151.3220 44.5 45.5   .5962E+06
12767.9150   .5191E-05  24725.5620 39.5 38.5   .1926E+06
12767.6460   .6126E+00  15001.9170 10.5 11.5   .1632E+01
12767.4894   .9842E-04  16820.1900 20.5 20.5   .1016E+05
12767.1258   .3849E-03    824.5960  5.5  4.5   .2598E+04
12767.0052   .3534E-04  23338.6230 34.5 34.5   .2830E+05
12766.7345   .1019E-01  14162.9400  7.5  6.5   .9814E+02
12766.6269   .6125E+00  15005.5270 10.5 11.5   .1633E+01
12766.2471   .3848E-03    824.8800  5.5  4.5   .2599E+04
12766.2357   .1446E-06  22306.2630 30.5 31.5   .6917E+07
12765.7809   .1342E-01  13881.2240 27.5 26.5   .7450E+02
12765.6113   .8370E-04  14584.7220 15.5 16.5   .1195E+05
12764.7556   .2900E-06  24760.4960 39.5 40.5   .3449E+07
12764.6350   .1019E-01  14164.7670  7.5  6.5   .9817E+02
12764.5943   .1432E-04   7458.9940 20.5 20.5   .6984E+05
12763.9538   .1343E-01  13859.9880 28.5 27.5   .7449E+02
12763.7142   .1908E-04  24839.3250 31.5 32.5   .5241E+05
12762.3635   .8313E-01   1650.8100  9.5  8.5   .1203E+02
12762.1875   .1057E-01   3568.5220  1.5  0.5   .9463E+02
12762.1191   .1059E-01   3568.4710  1.5  0.5   .9442E+02
12761.8373   .1570E-06   3344.5360 12.5 13.5   .6371E+07
12761.5180   .7754E-05  18151.9650 26.5 26.5   .1290E+06
12761.0374   .2311E-01  14004.6670  5.5  5.5   .4328E+02
12760.9429   .8311E-01   1654.5980  9.5  8.5   .1203E+02
12760.7768   .2311E-01  14004.8320  5.5  5.5   .4328E+02
12759.3811   .4212E-04  23324.6290 35.5 35.5   .2374E+05
12759.2540   .1341E-01  13900.6770 27.5 26.5   .7458E+02
12758.6483   .5937E-07  19528.8680 31.5 31.5   .1684E+08
12758.6109   .1431E-04   7474.2970 20.5 20.5   .6990E+05
12758.5995   .3420E-03  13251.2200 18.5 18.5   .2924E+04
12757.6470   .3419E-03  13260.0290 18.5 18.5   .2925E+04
12755.7734   .1338E-01  13885.0310 28.5 27.5   .7475E+02
12754.0517   .8336E-04  14590.5350 15.5 16.5   .1200E+05
12753.9655   .7659E-03   4840.2030  8.5  8.5   .1306E+04
12753.8890   .7216E-01  13942.4460  6.5  6.5   .1386E+02
12752.9763   .1143E-02  15339.7890 11.5 11.5   .8747E+03
12752.4932   .5050E-03  13670.9940  3.5  4.5   .1980E+04
12752.3435   .5050E-03  13670.8100  3.5  4.5   .1980E+04
12752.2020   .7657E-03   4843.0760  8.5  8.5   .1306E+04
12751.7563   .7214E-01  13943.7950  6.5  6.5   .1386E+02
12751.7238   .1407E-03  19448.0130 24.5 25.5   .7108E+04
12751.6929   .6269E-05  24725.5620 39.5 39.5   .1595E+06
