841
25426.3799   .1027E+06   5168.0000  0.0  0.0   .9734E-05
25426.1859   .7668E+03  17118.0000  0.0  0.0   .1304E-02
25426.1212   .6772E+04   6056.0000  0.0  0.0   .1477E-03
25425.0220   .4928E+04   6058.0000  0.0  0.0   .2029E-03
25425.0220   .4794E+06  17119.0000  0.0  0.0   .2086E-05
25424.6340   .2211E+06   6058.0000  0.0  0.0   .4522E-05
25424.4400   .2659E+06   6058.0000  0.0  0.0   .3761E-05
25424.0521   .6771E+04   6058.0000  0.0  0.0   .1477E-03
25423.2116   .4927E+04   6059.0000  0.0  0.0   .2030E-03
25422.8237   .2689E+04  11537.0000  0.0  0.0   .3719E-03
25422.6298   .2658E+06   6059.0000  0.0  0.0   .3762E-05
25418.1052   .1847E+05  17857.0000  0.0  0.0   .5415E-04
25417.7821   .1724E+08   5690.0000  0.0  0.0   .5801E-07
25417.7175   .6752E+04  18415.0000  0.0  0.0   .1481E-03
25417.5882   .1027E+06   5690.0000  0.0  0.0   .9741E-05
25417.3944   .1792E+05  17858.0000  0.0  0.0   .5580E-04
25417.3298   .2920E+07  18415.0000  0.0  0.0   .3425E-06
25417.0067   .1286E+05  24048.0000  0.0  0.0   .7773E-04
25416.7482   .2827E+07  18416.0000  0.0  0.0   .3537E-06
25416.6189   .1260E+05  24050.0000  0.0  0.0   .7936E-04
25414.5514   .2675E+06   6263.0000  0.0  0.0   .3738E-05
25414.0345   .5988E+04   6263.0000  0.0  0.0   .1670E-03
25413.2593   .5640E+04  15504.0000  0.0  0.0   .1773E-03
25413.0655   .4418E+04   6265.0000  0.0  0.0   .2263E-03
25412.9363   .6749E+04  16596.0000  0.0  0.0   .1482E-03
25412.6133   .4308E+07  16596.0000  0.0  0.0   .2321E-06
25412.6133   .3164E+06   6265.0000  0.0  0.0   .3161E-05
25412.1611   .4308E+07  16597.0000  0.0  0.0   .2322E-06
25412.1611   .5837E+06   9285.0000  0.0  0.0   .1713E-05
25411.9028   .2674E+06   6266.0000  0.0  0.0   .3739E-05
25411.8382   .8438E+04  16597.0000  0.0  0.0   .1185E-03
25411.7090   .1532E+04   9285.0000  0.0  0.0   .6528E-03
25411.5798   .1277E+04   9285.0000  0.0  0.0   .7831E-03
25411.4506   .3336E+05   4202.0000  0.0  0.0   .2998E-04
25411.4506   .5987E+04   6266.0000  0.0  0.0   .1670E-03
25411.3860   .8937E+03   4202.0000  0.0  0.0   .1119E-02
25411.1277   .5587E+06   9285.0000  0.0  0.0   .1790E-05
25410.8047   .1170E+07  13285.0000  0.0  0.0   .8547E-06
25410.7401   .4418E+04   6267.0000  0.0  0.0   .2264E-03
25410.3526   .2450E+05  19777.0000  0.0  0.0   .4082E-04
25410.3526   .4104E+04  13285.0000  0.0  0.0   .2437E-03
25410.2880   .3163E+06   6267.0000  0.0  0.0   .3161E-05
25410.1589   .3964E+05   4203.0000  0.0  0.0   .2523E-04
25410.0297   .1214E+07  13285.0000  0.0  0.0   .8238E-06
25408.8672   .4065E+04   8187.0000  0.0  0.0   .2460E-03
25408.2215   .2388E+05  19779.0000  0.0  0.0   .4187E-04
25408.0277   .4065E+04   8188.0000  0.0  0.0   .2460E-03
25407.3820   .3335E+05   4206.0000  0.0  0.0   .2999E-04
25407.3175   .8934E+03   4206.0000  0.0  0.0   .1119E-02
25406.9946   .1687E+04  14355.0000  0.0  0.0   .5929E-03
25406.4781   .3963E+05   4207.0000  0.0  0.0   .2523E-04
25404.9931   .1132E+05   3735.0000  0.0  0.0   .8831E-04
25404.5412   .1489E+05   3736.0000  0.0  0.0   .6715E-04
25400.9912   .1127E+06  21434.0000  0.0  0.0   .8875E-05
25400.7330   .3176E+06   6495.0000  0.0  0.0   .3149E-05
25400.4103   .1861E+05  24795.0000  0.0  0.0   .5372E-04
25400.3458   .5519E+04   6495.0000  0.0  0.0   .1812E-03
25400.2167   .1595E+06  13478.0000  0.0  0.0   .6269E-05
25400.1522   .1823E+05  24796.0000  0.0  0.0   .5485E-04
25399.5069   .4254E+04   6497.0000  0.0  0.0   .2351E-03
25399.0552   .3731E+06   6497.0000  0.0  0.0   .2681E-05
25398.8616   .1103E+06  21435.0000  0.0  0.0   .9062E-05
25398.6035   .1737E+07  14887.0000  0.0  0.0   .5758E-06
25398.4099   .1544E+06  13479.0000  0.0  0.0   .6475E-05
25398.2809   .8429E+04  14887.0000  0.0  0.0   .1186E-03
25397.8292   .1814E+07  14887.0000  0.0  0.0   .5511E-06
25397.5066   .3175E+06   6499.0000  0.0  0.0   .3150E-05
25397.0550   .5517E+04   6499.0000  0.0  0.0   .1813E-03
25396.5388   .4253E+04   6500.0000  0.0  0.0   .2351E-03
25396.1518   .3730E+06   6500.0000  0.0  0.0   .2681E-05
25395.4421   .1488E+05   3745.0000  0.0  0.0   .6720E-04
25395.2486   .1131E+05   3745.0000  0.0  0.0   .8838E-04
25394.4745   .3441E+08   2524.0000  0.0  0.0   .2906E-07
25394.3455   .2375E+06   2524.0000  0.0  0.0   .4211E-05
25394.2810   .1290E+08    998.0000  0.0  0.0   .7749E-07
25394.2165   .1275E+04   9831.0000  0.0  0.0   .7841E-03
25394.1520   .4321E+06    998.0000  0.0  0.0   .2314E-05
25394.0875   .2294E+06   2524.0000  0.0  0.0   .4359E-05
25393.8940   .3871E+08   2524.0000  0.0  0.0   .2583E-07
25393.7650   .6090E+06   9832.0000  0.0  0.0   .1642E-05
25393.6360   .5829E+06   9831.0000  0.0  0.0   .1716E-05
25393.1200   .1275E+04   9832.0000  0.0  0.0   .7842E-03
25393.1200   .4098E+04  13302.0000  0.0  0.0   .2440E-03
25392.7330   .1212E+07  13302.0000  0.0  0.0   .8250E-06
25392.6040   .1290E+08    999.0000  0.0  0.0   .7750E-07
25392.4750   .1685E+04  14370.0000  0.0  0.0   .5935E-03
25392.4750   .1168E+07  13303.0000  0.0  0.0   .8559E-06
25391.4432   .7456E+04  14370.0000  0.0  0.0   .1341E-03
25391.1852   .1851E+04  24795.0000  0.0  0.0   .5401E-03
25390.9917   .1813E+04  24796.0000  0.0  0.0   .5514E-03
25388.9283   .4410E+05  20871.0000  0.0  0.0   .2268E-04
25387.7678   .4523E+05  20871.0000  0.0  0.0   .2211E-04
25386.6718   .5759E+04   5482.0000  0.0  0.0   .1736E-03
25386.2206   .5759E+04   5482.0000  0.0  0.0   .1736E-03
25385.3181   .3735E+06   6752.0000  0.0  0.0   .2677E-05
25384.9959   .4856E+04   5482.0000  0.0  0.0   .2059E-03
25384.8669   .5411E+04   6752.0000  0.0  0.0   .1848E-03
25384.5447   .4856E+04   5482.0000  0.0  0.0   .2059E-03
25384.1579   .4076E+04   6753.0000  0.0  0.0   .2453E-03
25383.7712   .4348E+06   6753.0000  0.0  0.0   .2300E-05
25383.3845   .1684E+04  13341.0000  0.0  0.0   .5940E-03
25382.4179   .1812E+07  14903.0000  0.0  0.0   .5518E-06
25382.1601   .1735E+07  14903.0000  0.0  0.0   .5765E-06
25381.8379   .2736E+04  15133.0000  0.0  0.0   .3654E-03
25381.8379   .8418E+04  14903.0000  0.0  0.0   .1188E-03
25381.3868   .3734E+06   6756.0000  0.0  0.0   .2678E-05
25381.1291   .1141E+05   5486.0000  0.0  0.0   .8767E-04
25381.0002   .5410E+04   6756.0000  0.0  0.0   .1849E-03
25380.8069   .1141E+05   5486.0000  0.0  0.0   .8767E-04
25380.6136   .4075E+04   6757.0000  0.0  0.0   .2454E-03
25380.1625   .4346E+06   6757.0000  0.0  0.0   .2301E-05
25379.7115   .1641E+06  14200.0000  0.0  0.0   .6094E-05
25379.3249   .1593E+06  14200.0000  0.0  0.0   .6279E-05
25377.7788   .6082E+06   9848.0000  0.0  0.0   .1644E-05
25377.5855   .2104E+05  15450.0000  0.0  0.0   .4753E-04
25377.2634   .1274E+04   9848.0000  0.0  0.0   .7852E-03
25377.1990   .1274E+04   9848.0000  0.0  0.0   .7852E-03
25376.6837   .5821E+06   9848.0000  0.0  0.0   .1718E-05
25375.8463   .4055E+05   4495.0000  0.0  0.0   .2466E-04
25375.8463   .9462E+03   4495.0000  0.0  0.0   .1057E-02
25375.5887   .1836E+05  15953.0000  0.0  0.0   .5445E-04
25374.8158   .5034E+06  17829.0000  0.0  0.0   .1986E-05
25374.7514   .4797E+05   4496.0000  0.0  0.0   .2085E-04
25374.4294   .4908E+06  17829.0000  0.0  0.0   .2037E-05
25374.4294   .4764E+04   8062.0000  0.0  0.0   .2099E-03
25374.2362   .8183E+03  19097.0000  0.0  0.0   .1222E-02
25373.9786   .7637E+03  17829.0000  0.0  0.0   .1309E-02
25373.8498   .4763E+04   8063.0000  0.0  0.0   .2099E-03
25371.0165   .4053E+05   4500.0000  0.0  0.0   .2467E-04
25371.0165   .9458E+03   4500.0000  0.0  0.0   .1057E-02
25370.3083   .4795E+05   4500.0000  0.0  0.0   .2085E-04
25370.1151   .1496E+05   4189.0000  0.0  0.0   .6687E-04
25369.9220   .1682E+04  13355.0000  0.0  0.0   .5946E-03
25369.7932   .1953E+05   4190.0000  0.0  0.0   .5119E-04
25368.6988   .5981E+04  12990.0000  0.0  0.0   .1672E-03
25367.9907   .4352E+06   7033.0000  0.0  0.0   .2298E-05
25367.8620   .1682E+04  20317.0000  0.0  0.0   .5947E-03
25367.7332   .5857E+04  15720.0000  0.0  0.0   .1707E-03
25367.6689   .4883E+04   7033.0000  0.0  0.0   .2048E-03
25366.9608   .4312E+04   7034.0000  0.0  0.0   .2319E-03
25366.6390   .5043E+06   7034.0000  0.0  0.0   .1983E-05
25364.0004   .1207E+07  13874.0000  0.0  0.0   .8287E-06
25363.9360   .6801E+05    579.0000  0.0  0.0   .1470E-04
25363.4856   .4088E+04  13875.0000  0.0  0.0   .2446E-03
25363.3569   .4351E+06   7038.0000  0.0  0.0   .2298E-05
25363.1639   .1249E+07  13875.0000  0.0  0.0   .8007E-06
25362.9708   .4881E+04   7038.0000  0.0  0.0   .2049E-03
25362.7134   .4311E+04   7039.0000  0.0  0.0   .2320E-03
25362.3917   .5041E+06   7039.0000  0.0  0.0   .1984E-05
25362.1344   .9852E+04  21649.0000  0.0  0.0   .1015E-03
25360.9120   .1010E+05  21650.0000  0.0  0.0   .9898E-04
25359.8183   .1680E+04  14887.0000  0.0  0.0   .5951E-03
25359.6897   .1952E+05   4200.0000  0.0  0.0   .5124E-04
25359.3037   .1494E+05   4200.0000  0.0  0.0   .6692E-04
25358.2102   .1272E+04  10412.0000  0.0  0.0   .7864E-03
25357.7600   .6329E+06  10412.0000  0.0  0.0   .1580E-05
25357.5670   .6072E+06  10412.0000  0.0  0.0   .1647E-05
25357.1168   .1272E+04  10412.0000  0.0  0.0   .7864E-03
25356.4737   .4511E+05  20903.0000  0.0  0.0   .2217E-04
25355.8306   .4398E+05  20904.0000  0.0  0.0   .2274E-04
25355.4447   .1723E+05   5587.0000  0.0  0.0   .5804E-04
25354.6731   .1723E+05   5588.0000  0.0  0.0   .5804E-04
25354.2229   .5239E+04   5587.0000  0.0  0.0   .1909E-03
25353.8372   .5851E+05  23069.0000  0.0  0.0   .1709E-04
25353.4514   .5239E+04   5588.0000  0.0  0.0   .1909E-03
25353.3228   .5718E+05  23069.0000  0.0  0.0   .1749E-04
25353.1299   .2572E+05  23221.0000  0.0  0.0   .3889E-04
25352.1012   .1637E+06  14228.0000  0.0  0.0   .6107E-05
25351.7155   .2625E+05  23222.0000  0.0  0.0   .3809E-04
25351.3298   .2583E+05   5590.0000  0.0  0.0   .3871E-04
25350.7512   .2583E+05   5590.0000  0.0  0.0   .3871E-04
25350.1727   .1589E+06  14229.0000  0.0  0.0   .6294E-05
25349.0157   .8167E+03  19122.0000  0.0  0.0   .1224E-02
25348.8871   .5047E+06   7339.0000  0.0  0.0   .1981E-05
25348.5658   .4743E+04   7339.0000  0.0  0.0   .2108E-03
25347.9231   .4121E+04   7340.0000  0.0  0.0   .2426E-03
25347.6017   .5835E+06   7340.0000  0.0  0.0   .1714E-05
25346.8948   .5023E+06  17857.0000  0.0  0.0   .1991E-05
25346.0594   .7620E+03  17857.0000  0.0  0.0   .1312E-02
25345.2883   .4083E+04  13893.0000  0.0  0.0   .2449E-03
25345.1598   .1679E+04  20340.0000  0.0  0.0   .5958E-03
25344.9671   .1247E+07  13893.0000  0.0  0.0   .8018E-06
25344.8386   .4897E+06  17858.0000  0.0  0.0   .2042E-05
25344.5816   .1205E+07  13894.0000  0.0  0.0   .8300E-06
25344.3888   .1678E+04  14903.0000  0.0  0.0   .5958E-03
25343.4251   .5045E+06   7344.0000  0.0  0.0   .1982E-05
25343.1039   .4741E+04   7344.0000  0.0  0.0   .2109E-03
25342.9754   .4120E+04   7345.0000  0.0  0.0   .2427E-03
25342.5899   .5832E+06   7345.0000  0.0  0.0   .1715E-05
25341.4979   .3855E+08   2906.0000  0.0  0.0   .2594E-07
25341.3051   .2142E+06   2906.0000  0.0  0.0   .4669E-05
25341.2409   .2060E+06   2907.0000  0.0  0.0   .4855E-05
25341.0482   .1285E+08   1249.0000  0.0  0.0   .7782E-07
25341.0482   .3855E+08   2907.0000  0.0  0.0   .2594E-07
25340.9197   .3739E+06   1249.0000  0.0  0.0   .2674E-05
25340.7270   .6321E+06  10429.0000  0.0  0.0   .1582E-05
25340.1490   .1106E+05   5180.0000  0.0  0.0   .9041E-04
25340.1490   .1270E+04  10430.0000  0.0  0.0   .7875E-03
25340.0847   .1270E+04  10429.0000  0.0  0.0   .7875E-03
25339.5709   .1285E+08   1250.0000  0.0  0.0   .7783E-07
25339.5067   .6064E+06  10430.0000  0.0  0.0   .1649E-05
25339.4425   .8990E+03   4813.0000  0.0  0.0   .1112E-02
25339.3782   .4872E+05   4813.0000  0.0  0.0   .2052E-04
25338.4791   .5737E+05   4814.0000  0.0  0.0   .1743E-04
25337.2590   .7009E+04   7962.0000  0.0  0.0   .1427E-03
25336.9379   .7009E+04   7962.0000  0.0  0.0   .1427E-03
25334.6907   .1966E+05   4667.0000  0.0  0.0   .5087E-04
25334.4339   .2538E+05   4668.0000  0.0  0.0   .3939E-04
25333.7919   .8986E+03   4818.0000  0.0  0.0   .1113E-02
25333.7277   .4870E+05   4818.0000  0.0  0.0   .2053E-04
25333.2783   .5735E+05   4819.0000  0.0  0.0   .1744E-04
25328.7855   .1008E+05  21682.0000  0.0  0.0   .9923E-04
25328.4647   .1684E+06  14962.0000  0.0  0.0   .5938E-05
25328.1438   .9825E+04  21683.0000  0.0  0.0   .1018E-03
25328.0797   .1634E+06  14962.0000  0.0  0.0   .6119E-05
25327.8230   .5826E+06   7668.0000  0.0  0.0   .1717E-05
25327.5022   .4574E+04   7668.0000  0.0  0.0   .2186E-03
25326.9889   .3902E+04   7669.0000  0.0  0.0   .2563E-03
25326.6680   .6703E+06   7669.0000  0.0  0.0   .1492E-05
25325.6415   .2496E+04  11135.0000  0.0  0.0   .4006E-03
25323.7811   .2852E+04  15307.0000  0.0  0.0   .3506E-03
25323.3321   .2536E+05   4679.0000  0.0  0.0   .3943E-04
25323.2680   .3084E+05   5718.0000  0.0  0.0   .3242E-04
25322.8190   .1964E+05   4679.0000  0.0  0.0   .5091E-04
25322.3059   .5037E+04   5718.0000  0.0  0.0   .1985E-03
25322.1134   .3084E+05   5719.0000  0.0  0.0   .3242E-04
25321.5362   .5823E+06   7674.0000  0.0  0.0   .1717E-05
25321.2156   .5036E+04   5719.0000  0.0  0.0   .1986E-03
25321.2156   .4572E+04   7674.0000  0.0  0.0   .2187E-03
25321.1514   .3900E+04   7674.0000  0.0  0.0   .2564E-03
25320.8308   .6700E+06   7674.0000  0.0  0.0   .1492E-05
25320.2536   .1146E+06  22231.0000  0.0  0.0   .8728E-05
25319.9971   .4179E+05   5720.0000  0.0  0.0   .2393E-04
25319.8047   .1120E+06  22231.0000  0.0  0.0   .8932E-05
25319.3558   .6777E+05  15957.0000  0.0  0.0   .1476E-04
25319.2917   .1268E+04  11010.0000  0.0  0.0   .7888E-03
25319.0352   .4179E+05   5721.0000  0.0  0.0   .2393E-04
25318.8429   .6562E+06  11011.0000  0.0  0.0   .1524E-05
25318.6505   .6310E+06  11010.0000  0.0  0.0   .1585E-05
25318.4581   .1866E+05  15102.0000  0.0  0.0   .5358E-04
25318.2017   .1268E+04  11011.0000  0.0  0.0   .7888E-03
25317.8811   .2618E+05  23256.0000  0.0  0.0   .3819E-04
25317.4323   .2564E+05  23257.0000  0.0  0.0   .3900E-04
25314.7398   .5833E+05  23108.0000  0.0  0.0   .1714E-04
25312.6887   .5699E+05  23110.0000  0.0  0.0   .1755E-04
25312.1119   .1749E+05  15476.0000  0.0  0.0   .5717E-04
25312.0478   .1241E+07  14480.0000  0.0  0.0   .8058E-06
25311.5352   .3257E+04  14480.0000  0.0  0.0   .3071E-03
25311.1507   .1285E+07  14480.0000  0.0  0.0   .7785E-06
25309.1643   .7107E+04  13853.0000  0.0  0.0   .1407E-03
25306.0251   .1673E+04  15436.0000  0.0  0.0   .5976E-03
25304.6800   .6707E+06   8020.0000  0.0  0.0   .1491E-05
25304.3598   .4870E+04   8020.0000  0.0  0.0   .2053E-03
25303.9114   .4164E+04   8021.0000  0.0  0.0   .2401E-03
25303.5912   .7700E+06   8021.0000  0.0  0.0   .1299E-05
25302.1183   .9626E+03   5155.0000  0.0  0.0   .1039E-02
25301.9902   .5814E+05   5155.0000  0.0  0.0   .1720E-04
25301.2859   .6814E+05   5156.0000  0.0  0.0   .1467E-04
25300.7736   .6553E+06  11029.0000  0.0  0.0   .1526E-05
25300.0693   .1266E+04  11030.0000  0.0  0.0   .7900E-03
25300.0693   .1266E+04  11029.0000  0.0  0.0   .7900E-03
25299.8772   .1680E+06  14991.0000  0.0  0.0   .5951E-05
25299.4291   .6300E+06  11030.0000  0.0  0.0   .1587E-05
25298.7248   .2549E+05   5167.0000  0.0  0.0   .3923E-04
25298.5328   .3276E+05   5168.0000  0.0  0.0   .3053E-04
25297.8926   .1630E+06  14992.0000  0.0  0.0   .6133E-05
25297.7646   .2251E+05  23221.0000  0.0  0.0   .4443E-04
25297.5085   .6703E+06   8027.0000  0.0  0.0   .1492E-05
25297.4445   .9961E+04   7887.0000  0.0  0.0   .1004E-03
25297.3165   .9961E+04   7887.0000  0.0  0.0   .1004E-03
25297.2525   .4162E+04   8027.0000  0.0  0.0   .2403E-03
25297.1885   .4867E+04   8027.0000  0.0  0.0   .2055E-03
25296.9324   .7696E+06   8027.0000  0.0  0.0   .1299E-05
25296.4203   .2303E+05  23222.0000  0.0  0.0   .4342E-04
25295.7803   .1829E+05  18577.0000  0.0  0.0   .5467E-04
25295.6523   .9621E+03   5162.0000  0.0  0.0   .1039E-02
25295.4603   .5811E+05   5162.0000  0.0  0.0   .1721E-04
25295.2043   .6811E+05   5162.0000  0.0  0.0   .1468E-04
25294.7563   .1885E+05  18577.0000  0.0  0.0   .5306E-04
25292.3885   .3252E+04  14500.0000  0.0  0.0   .3075E-03
25292.1326   .6685E+05    776.0000  0.0  0.0   .1496E-04
25292.0046   .1283E+07  14500.0000  0.0  0.0   .7796E-06
25291.6207   .1239E+07  14500.0000  0.0  0.0   .8071E-06
25289.9572   .4656E+05   5874.0000  0.0  0.0   .2148E-04
25289.7013   .1671E+04  15452.0000  0.0  0.0   .5984E-03
25289.1895   .4529E+04   5874.0000  0.0  0.0   .2208E-03
25288.4219   .4656E+05   5876.0000  0.0  0.0   .2148E-04
25288.2940   .4266E+07  17170.0000  0.0  0.0   .2344E-06
25287.9742   .8355E+04  17170.0000  0.0  0.0   .1197E-03
25287.9102   .5128E+06  18577.0000  0.0  0.0   .1950E-05
25287.7823   .6683E+04  17170.0000  0.0  0.0   .1496E-03
25287.6543   .4529E+04   5876.0000  0.0  0.0   .2208E-03
25287.5264   .5000E+06  18577.0000  0.0  0.0   .2000E-05
25287.4625   .4265E+07  17170.0000  0.0  0.0   .2344E-06
25287.2706   .5956E+05   5876.0000  0.0  0.0   .1679E-04
25287.0787   .7585E+03  18577.0000  0.0  0.0   .1318E-02
25286.5031   .5609E+04  12646.0000  0.0  0.0   .1783E-03
25286.3112   .3273E+05   5180.0000  0.0  0.0   .3056E-04
25285.9274   .5955E+05   5877.0000  0.0  0.0   .1679E-04
25285.6716   .2546E+05   5180.0000  0.0  0.0   .3927E-04
25284.4566   .1279E+08   1527.0000  0.0  0.0   .7817E-07
25284.3287   .3176E+06   1527.0000  0.0  0.0   .3149E-05
25283.1138   .1706E+08   1528.0000  0.0  0.0   .5863E-07
25283.0498   .3837E+08   3313.0000  0.0  0.0   .2606E-07
25282.8580   .1836E+06   3314.0000  0.0  0.0   .5448E-05
25282.8580   .1913E+06   3313.0000  0.0  0.0   .5226E-05
25282.6662   .3837E+08   3314.0000  0.0  0.0   .2606E-07
25282.3465   .1142E+06  22269.0000  0.0  0.0   .8754E-05
25280.2368   .1116E+06  22270.0000  0.0  0.0   .8960E-05
25279.4058   .7686E+06   8395.0000  0.0  0.0   .1301E-05
25279.4058   .2493E+05  20567.0000  0.0  0.0   .4012E-04
25279.0862   .4674E+04   8395.0000  0.0  0.0   .2140E-03
25278.8944   .2430E+05  20567.0000  0.0  0.0   .4115E-04
25278.6387   .3905E+04   8396.0000  0.0  0.0   .2561E-03
25278.3831   .8803E+06   8396.0000  0.0  0.0   .1136E-05
25277.2965   .1264E+04  11626.0000  0.0  0.0   .7914E-03
25276.8492   .6786E+06  11627.0000  0.0  0.0   .1474E-05
25276.5935   .6540E+06  11626.0000  0.0  0.0   .1529E-05
25276.1462   .1011E+04  11627.0000  0.0  0.0   .9895E-03
25273.9097   .5464E+06   8931.0000  0.0  0.0   .1830E-05
25272.7597   .6130E+06   9178.0000  0.0  0.0   .1631E-05
25272.7597   .1724E+06  15735.0000  0.0  0.0   .5802E-05
25272.6958   .1278E+05   8933.0000  0.0  0.0   .7826E-04
25272.3125   .1677E+06  15735.0000  0.0  0.0   .5964E-05
25272.3125   .6215E+06   8933.0000  0.0  0.0   .1609E-05
25272.2486   .4858E+06   8709.0000  0.0  0.0   .2059E-05
25272.1847   .2880E+07  19024.0000  0.0  0.0   .3472E-06
25271.6736   .1234E+05   9179.0000  0.0  0.0   .8102E-04
25271.6736   .6674E+04  19025.0000  0.0  0.0   .1498E-03
25271.3542   .7681E+06   8403.0000  0.0  0.0   .1302E-05
25271.2903   .6957E+06   9179.0000  0.0  0.0   .1437E-05
25271.1626   .2968E+07  19025.0000  0.0  0.0   .3370E-06
25271.1626   .3903E+04   8403.0000  0.0  0.0   .2562E-03
25271.0348   .4671E+04   8403.0000  0.0  0.0   .2141E-03
25270.9071   .8798E+06   8403.0000  0.0  0.0   .1137E-05
25270.8432   .1407E+05   8710.0000  0.0  0.0   .7106E-04
25270.7793   .5462E+06   8934.0000  0.0  0.0   .1831E-05
25270.4599   .5564E+06   8710.0000  0.0  0.0   .1797E-05
25269.8851   .1277E+05   8935.0000  0.0  0.0   .7828E-04
25269.7573   .4857E+06   8711.0000  0.0  0.0   .2059E-05
25269.5018   .6213E+06   8935.0000  0.0  0.0   .1609E-05
25268.9909   .6128E+06   9182.0000  0.0  0.0   .1632E-05
25268.8631   .6673E+04  17189.0000  0.0  0.0   .1499E-03
25268.6715   .6860E+06   9448.0000  0.0  0.0   .1458E-05
25268.6077   .1407E+05   8712.0000  0.0  0.0   .7107E-04
25268.4799   .8115E+03  19801.0000  0.0  0.0   .1232E-02
25268.4799   .4259E+07  17189.0000  0.0  0.0   .2348E-06
25268.2245   .1234E+05   9182.0000  0.0  0.0   .8104E-04
25268.2245   .1800E+07  15435.0000  0.0  0.0   .5555E-06
25268.2245   .5563E+06   8712.0000  0.0  0.0   .1798E-05
25268.0329   .4259E+07  17190.0000  0.0  0.0   .2348E-06
25267.9051   .8342E+04  15435.0000  0.0  0.0   .1199E-03
25267.9051   .4288E+06   8510.0000  0.0  0.0   .2332E-05
25267.9051   .6955E+06   9182.0000  0.0  0.0   .1438E-05
25267.8413   .7367E+05  16213.0000  0.0  0.0   .1357E-04
25267.6497   .1092E+05   9449.0000  0.0  0.0   .9156E-04
25267.6497   .8342E+04  17190.0000  0.0  0.0   .1199E-03
25267.3942   .1876E+07  15436.0000  0.0  0.0   .5330E-06
25267.3304   .7749E+06   9449.0000  0.0  0.0   .1290E-05
25266.3087   .1528E+05   8511.0000  0.0  0.0   .6543E-04
25265.9894   .1880E+05  18606.0000  0.0  0.0   .5318E-04
25265.9255   .4288E+06   8512.0000  0.0  0.0   .2332E-05
25265.8617   .4968E+06   8511.0000  0.0  0.0   .2013E-05
25265.2870   .1825E+05  18607.0000  0.0  0.0   .5480E-04
25264.5847   .1528E+05   8513.0000  0.0  0.0   .6544E-04
25264.2016   .6857E+06   9452.0000  0.0  0.0   .1458E-05
25264.0739   .4968E+06   8513.0000  0.0  0.0   .2013E-05
25263.8824   .9060E+03   5522.0000  0.0  0.0   .1104E-02
25263.6909   .6889E+05   5522.0000  0.0  0.0   .1452E-04
25263.5632   .1092E+05   9453.0000  0.0  0.0   .9159E-04
25263.3717   .2945E+04  15501.0000  0.0  0.0   .3395E-03
25263.2440   .7747E+06   9453.0000  0.0  0.0   .1291E-05
25263.0525   .8074E+05   5523.0000  0.0  0.0   .1238E-04
25262.6056   .2297E+05  23256.0000  0.0  0.0   .4354E-04
25262.0949   .3289E+05   5690.0000  0.0  0.0   .3040E-04
25262.0949   .2244E+05  23257.0000  0.0  0.0   .4456E-04
25261.9672   .4198E+05   5690.0000  0.0  0.0   .2382E-04
25261.4566   .7675E+06   9741.0000  0.0  0.0   .1303E-05
25261.0098   .3776E+06   8335.0000  0.0  0.0   .2648E-05
25260.5630   .1040E+05   9742.0000  0.0  0.0   .9615E-04
25260.2439   .8650E+06   9742.0000  0.0  0.0   .1156E-05
25259.4780   .3776E+06   8337.0000  0.0  0.0   .2649E-05
25259.1589   .1734E+05   8337.0000  0.0  0.0   .5768E-04
25259.0951   .5117E+06  18606.0000  0.0  0.0   .1954E-05
25258.5845   .4415E+06   8337.0000  0.0  0.0   .2265E-05
25258.3293   .7567E+03  18606.0000  0.0  0.0   .1321E-02
25257.8826   .1667E+05  14774.0000  0.0  0.0   .5999E-04
25257.8826   .1734E+05   8338.0000  0.0  0.0   .5769E-04
25257.6911   .6775E+06  11646.0000  0.0  0.0   .1476E-05
25257.3083   .4415E+06   8338.0000  0.0  0.0   .2265E-05
25257.2445   .1667E+04  13839.0000  0.0  0.0   .5999E-03
25257.0530   .4988E+06  18607.0000  0.0  0.0   .2005E-05
25256.9892   .1009E+04  11646.0000  0.0  0.0   .9910E-03
25256.9254   .1262E+04  11647.0000  0.0  0.0   .7927E-03
25256.4788   .9055E+03   5529.0000  0.0  0.0   .1104E-02
25256.2873   .6885E+05   5529.0000  0.0  0.0   .1453E-04
25256.2873   .6530E+06  11647.0000  0.0  0.0   .1532E-05
25256.2873   .7672E+06   9746.0000  0.0  0.0   .1304E-05
25256.1597   .8070E+05   5529.0000  0.0  0.0   .1239E-04
25255.7769   .1040E+05   9746.0000  0.0  0.0   .9619E-04
25255.4579   .8647E+06   9746.0000  0.0  0.0   .1157E-05
25255.3941   .6380E+05   6056.0000  0.0  0.0   .1567E-04
25254.7561   .4343E+04   6056.0000  0.0  0.0   .2302E-03
25254.6285   .1896E+05   7838.0000  0.0  0.0   .5274E-04
25254.6285   .1896E+05   7838.0000  0.0  0.0   .5274E-04
25254.6285   .1276E+07  15100.0000  0.0  0.0   .7837E-06
25254.1820   .3242E+04  15101.0000  0.0  0.0   .3085E-03
25253.7992   .1321E+07  15101.0000  0.0  0.0   .7572E-06
25253.3527   .6379E+05   6058.0000  0.0  0.0   .1568E-04
25253.0975   .7884E+05   6058.0000  0.0  0.0   .1268E-04
25252.7148   .4343E+04   6058.0000  0.0  0.0   .2303E-03
25251.8218   .8785E+06   8792.0000  0.0  0.0   .1138E-05
25251.6305   .3279E+06   8185.0000  0.0  0.0   .3050E-05
25251.5667   .4454E+04   8792.0000  0.0  0.0   .2245E-03
25251.3116   .7883E+05   6059.0000  0.0  0.0   .1268E-04
25251.1840   .4185E+04   8793.0000  0.0  0.0   .2389E-03
25251.1202   .1874E+07  15452.0000  0.0  0.0   .5337E-06
25251.0565   .8564E+06  10056.0000  0.0  0.0   .1168E-05
25250.8651   .1004E+07   8793.0000  0.0  0.0   .9961E-06
25250.7376   .1798E+07  15453.0000  0.0  0.0   .5563E-06
25250.5462   .3279E+06   8186.0000  0.0  0.0   .3050E-05
25250.4825   .8331E+04  15453.0000  0.0  0.0   .1200E-03
25250.3549   .6663E+04  19046.0000  0.0  0.0   .1501E-03
25250.2911   .1093E+05  10057.0000  0.0  0.0   .9148E-04
25249.9723   .9631E+06  10057.0000  0.0  0.0   .1038E-05
25249.9085   .2963E+07  19046.0000  0.0  0.0   .3375E-06
25249.3983   .2007E+05   8187.0000  0.0  0.0   .4981E-04
25249.3346   .2875E+07  19047.0000  0.0  0.0   .3478E-06
25248.7606   .3905E+06   8187.0000  0.0  0.0   .2561E-05
25248.6331   .4194E+05   5704.0000  0.0  0.0   .2384E-04
25248.5056   .2007E+05   8188.0000  0.0  0.0   .4982E-04
25248.3780   .1662E+05  15017.0000  0.0  0.0   .6017E-04
25247.9317   .3285E+05   5704.0000  0.0  0.0   .3044E-04
25247.8679   .3905E+06   8188.0000  0.0  0.0   .2561E-05
25245.2540   .1665E+04  15999.0000  0.0  0.0   .6005E-03
25245.0627   .8560E+06  10062.0000  0.0  0.0   .1168E-05
25244.7440   .1093E+05  10063.0000  0.0  0.0   .9152E-04
25244.4253   .9627E+06  10063.0000  0.0  0.0   .1039E-05
25243.6603   .2486E+05  20603.0000  0.0  0.0   .4023E-04
25243.0867   .1720E+06  15765.0000  0.0  0.0   .5815E-05
25242.8317   .8778E+06   8801.0000  0.0  0.0   .1139E-05
25242.7680   .4182E+04   8801.0000  0.0  0.0   .2391E-03
25242.7680   .1665E+04  13854.0000  0.0  0.0   .6006E-03
25242.5768   .4451E+04   8801.0000  0.0  0.0   .2247E-03
25242.5131   .1003E+07   8801.0000  0.0  0.0   .9968E-06
25242.5131   .8099E+03  19827.0000  0.0  0.0   .1235E-02
25241.4933   .2423E+05  20604.0000  0.0  0.0   .4127E-04
25241.0472   .1672E+06  15766.0000  0.0  0.0   .5979E-05
25239.9639   .2814E+06   8059.0000  0.0  0.0   .3554E-05
25239.2630   .2814E+06   8060.0000  0.0  0.0   .3554E-05
25237.3516   .9533E+06  10394.0000  0.0  0.0   .1049E-05
25237.2242   .2356E+05   8062.0000  0.0  0.0   .4244E-04
25236.6508   .2356E+05   8063.0000  0.0  0.0   .4244E-04
25236.5871   .1038E+05  10395.0000  0.0  0.0   .9634E-04
25236.4597   .3437E+06   8062.0000  0.0  0.0   .2909E-05
25236.2686   .1072E+07  10395.0000  0.0  0.0   .9328E-06
25235.8864   .3437E+06   8063.0000  0.0  0.0   .2910E-05
25234.0391   .3237E+04  15121.0000  0.0  0.0   .3089E-03
25233.6570   .1319E+07  15121.0000  0.0  0.0   .7584E-06
25233.2112   .1274E+07  15122.0000  0.0  0.0   .7851E-06
25231.9375   .1259E+04  12259.0000  0.0  0.0   .7942E-03
25231.4917   .7015E+06  12259.0000  0.0  0.0   .1426E-05
25231.2370   .6777E+06  12259.0000  0.0  0.0   .1476E-05
25230.7913   .1007E+04  12259.0000  0.0  0.0   .9931E-03
25230.4729   .9528E+06  10401.0000  0.0  0.0   .1050E-05
25230.2182   .1037E+05  10401.0000  0.0  0.0   .9639E-04
25229.9635   .1071E+07  10401.0000  0.0  0.0   .9333E-06
25229.8361   .2296E+04  10754.0000  0.0  0.0   .4355E-03
25228.0535   .1663E+04  16017.0000  0.0  0.0   .6013E-03
25227.7988   .6744E+04  13355.0000  0.0  0.0   .1483E-03
25226.2074   .2338E+06   7958.0000  0.0  0.0   .4277E-05
25225.7619   .2338E+06   7959.0000  0.0  0.0   .4277E-05
25224.7435   .4205E+05   6234.0000  0.0  0.0   .2378E-04
25224.6798   .4424E+05   6234.0000  0.0  0.0   .2261E-04
25224.6798   .9813E+03   5912.0000  0.0  0.0   .1019E-02
25224.4253   .8162E+05   5912.0000  0.0  0.0   .1225E-04
25224.2343   .1698E+08   1831.0000  0.0  0.0   .5891E-07
25224.1071   .2936E+06   1831.0000  0.0  0.0   .3406E-05
25223.9161   .9545E+05   5913.0000  0.0  0.0   .1048E-04
25223.0252   .1697E+08   1832.0000  0.0  0.0   .5891E-07
25222.5797   .3011E+05   7962.0000  0.0  0.0   .3321E-04
25222.2616   .3011E+05   7962.0000  0.0  0.0   .3321E-04
25221.9434   .1002E+07   9211.0000  0.0  0.0   .9984E-06
25221.6889   .3004E+06   7962.0000  0.0  0.0   .3329E-05
25221.6253   .4772E+04   9211.0000  0.0  0.0   .2096E-03
25221.3707   .3004E+06   7962.0000  0.0  0.0   .3329E-05
25221.3071   .4494E+04   9212.0000  0.0  0.0   .2225E-03
25220.9890   .1145E+07   9212.0000  0.0  0.0   .8736E-06
25220.9253   .3316E+05  25597.0000  0.0  0.0   .3015E-04
25220.4800   .3256E+05  25597.0000  0.0  0.0   .3072E-04
25220.0346   .1063E+07  10754.0000  0.0  0.0   .9405E-06
25219.5893   .8253E+05   6263.0000  0.0  0.0   .1212E-04
25219.3348   .9764E+04  10754.0000  0.0  0.0   .1024E-03
25219.2712   .8121E+04  23910.0000  0.0  0.0   .1231E-03
25219.0803   .1196E+07  10754.0000  0.0  0.0   .8364E-06
25219.0167   .4155E+04   6263.0000  0.0  0.0   .2407E-03
25218.6350   .3818E+08   3745.0000  0.0  0.0   .2619E-07
25218.5714   .1613E+06   3745.0000  0.0  0.0   .6200E-05
25218.4442   .1693E+06   3745.0000  0.0  0.0   .5908E-05
25218.3169   .3818E+08   3745.0000  0.0  0.0   .2619E-07
25218.0625   .8309E+04  23910.0000  0.0  0.0   .1203E-03
25217.6172   .1001E+06   6265.0000  0.0  0.0   .9987E-05
25217.4264   .4915E+05   1001.0000  0.0  0.0   .2034E-04
25217.2992   .1006E+05  26441.0000  0.0  0.0   .9942E-04
25216.9811   .8251E+05   6266.0000  0.0  0.0   .1212E-04
25216.4087   .4154E+04   6266.0000  0.0  0.0   .2407E-03
25216.2815   .9806E+03   5921.0000  0.0  0.0   .1020E-02
25216.0907   .9539E+05   5921.0000  0.0  0.0   .1048E-04
25216.0271   .8156E+05   5921.0000  0.0  0.0   .1226E-04
25215.8999   .1027E+05  26441.0000  0.0  0.0   .9739E-04
25215.2639   .1001E+06   6267.0000  0.0  0.0   .9989E-05
25213.1654   .7932E+05  16489.0000  0.0  0.0   .1261E-04
25212.3387   .1063E+07  10761.0000  0.0  0.0   .9411E-06
25212.2116   .9758E+04  10761.0000  0.0  0.0   .1025E-03
25212.0208   .1763E+06  16519.0000  0.0  0.0   .5671E-05
25211.9573   .4491E+04   9221.0000  0.0  0.0   .2227E-03
25211.9573   .1001E+07   9221.0000  0.0  0.0   .9992E-06
25211.8937   .1195E+07  10761.0000  0.0  0.0   .8368E-06
25211.7029   .1144E+07   9221.0000  0.0  0.0   .8743E-06
25211.6394   .4768E+04   9221.0000  0.0  0.0   .2097E-03
25211.6394   .1715E+06  16518.0000  0.0  0.0   .5830E-05
25211.3215   .7004E+06  12280.0000  0.0  0.0   .1428E-05
25210.8764   .1813E+06   7882.0000  0.0  0.0   .5517E-05
25210.6857   .1813E+06   7882.0000  0.0  0.0   .5517E-05
25210.5586   .1005E+04  12280.0000  0.0  0.0   .9947E-03
25210.4950   .1257E+04  12280.0000  0.0  0.0   .7956E-03
25210.2407   .4419E+05   6249.0000  0.0  0.0   .2263E-04
25209.7957   .6765E+06  12280.0000  0.0  0.0   .1478E-05
25209.4143   .4200E+05   6249.0000  0.0  0.0   .2381E-04
25205.5372   .4189E+05   7887.0000  0.0  0.0   .2387E-04
25205.4101   .4189E+05   7887.0000  0.0  0.0   .2387E-04
25205.0924   .5250E+04  12322.0000  0.0  0.0   .1905E-03
25204.3934   .2589E+06   7887.0000  0.0  0.0   .3863E-05
25204.2028   .2589E+06   7887.0000  0.0  0.0   .3863E-05
25200.5179   .3034E+04  15717.0000  0.0  0.0   .3296E-03
25200.0732   .4456E+05  21649.0000  0.0  0.0   .2244E-04
25199.8827   .1503E+06   7824.0000  0.0  0.0   .6654E-05
25199.8827   .1503E+06   7824.0000  0.0  0.0   .6654E-05
25199.0569   .1186E+07  11135.0000  0.0  0.0   .8435E-06
25198.8664   .4570E+05  21650.0000  0.0  0.0   .2188E-04
25198.4218   .1032E+05  11135.0000  0.0  0.0   .9685E-04
25198.1678   .1330E+07  11135.0000  0.0  0.0   .7518E-06
25196.1356   .1496E+05  14465.0000  0.0  0.0   .6686E-04
25192.7070   .5220E+06  19334.0000  0.0  0.0   .1916E-05
25192.3895   .5090E+06  19334.0000  0.0  0.0   .1965E-05
25191.8817   .7528E+03  19334.0000  0.0  0.0   .1328E-02
25191.5008   .1311E+07  15735.0000  0.0  0.0   .7627E-06
25190.9930   .3226E+04  15736.0000  0.0  0.0   .3100E-03
25190.6122   .1158E+06  23069.0000  0.0  0.0   .8637E-05
25190.6122   .1354E+07  15736.0000  0.0  0.0   .7386E-06
25190.4852   .1185E+07  11143.0000  0.0  0.0   .8441E-06
25190.4218   .1032E+05  11143.0000  0.0  0.0   .9691E-04
25190.1679   .1131E+06  23069.0000  0.0  0.0   .8839E-05
25190.1044   .1329E+07  11143.0000  0.0  0.0   .7523E-06
25189.5332   .1142E+07   9652.0000  0.0  0.0   .8758E-06
25189.2158   .4483E+04   9652.0000  0.0  0.0   .2231E-03
25188.8985   .4145E+04   9653.0000  0.0  0.0   .2412E-03
25188.6447   .1299E+07   9653.0000  0.0  0.0   .7699E-06
25186.5505   .4650E+05   6799.0000  0.0  0.0   .2150E-04
25186.5505   .4431E+05   6799.0000  0.0  0.0   .2257E-04
25185.7891   .6478E+05   7838.0000  0.0  0.0   .1544E-04
25185.7891   .6478E+05   7838.0000  0.0  0.0   .1544E-04
25185.2815   .9805E+03  25597.0000  0.0  0.0   .1020E-02
25184.7740   .1536E+05  14575.0000  0.0  0.0   .6510E-04
25184.3299   .9129E+03   6326.0000  0.0  0.0   .1095E-02
25184.1396   .2170E+06   7838.0000  0.0  0.0   .4609E-05
25184.1396   .2170E+06   7838.0000  0.0  0.0   .4609E-05
25184.0761   .9603E+05   6326.0000  0.0  0.0   .1041E-04
25183.8858   .1001E+04  25597.0000  0.0  0.0   .9991E-03
25183.6955   .1126E+06   6327.0000  0.0  0.0   .8884E-05
25183.0611   .1003E+04  12907.0000  0.0  0.0   .9969E-03
25182.6171   .7250E+06  12908.0000  0.0  0.0   .1379E-05
25182.4902   .1038E+06   6495.0000  0.0  0.0   .9631E-05
25182.2999   .6988E+06  12907.0000  0.0  0.0   .1431E-05
25181.9828   .3975E+04   6495.0000  0.0  0.0   .2516E-03
25181.8559   .1003E+04  12908.0000  0.0  0.0   .9970E-03
25181.4119   .1759E+06  16549.0000  0.0  0.0   .5685E-05
25180.7142   .1240E+06   6497.0000  0.0  0.0   .8067E-05
25179.3190   .1711E+06  16551.0000  0.0  0.0   .5845E-05
25179.1922   .1038E+06   6499.0000  0.0  0.0   .9633E-05
25178.7483   .3974E+04   6499.0000  0.0  0.0   .2516E-03
25178.6214   .4142E+04   9663.0000  0.0  0.0   .2414E-03
25178.4946   .1141E+07   9663.0000  0.0  0.0   .8766E-06
25178.3678   .1298E+07   9663.0000  0.0  0.0   .7706E-06
25178.2410   .4479E+04   9663.0000  0.0  0.0   .2233E-03
25177.8605   .3305E+05  25640.0000  0.0  0.0   .3026E-04
25177.7971   .1239E+06   6500.0000  0.0  0.0   .8069E-05
25177.7971   .8283E+04  23950.0000  0.0  0.0   .1207E-03
25177.4166   .8094E+04  23952.0000  0.0  0.0   .1235E-03
25177.2264   .1656E+04  16578.0000  0.0  0.0   .6037E-03
25175.9584   .3244E+05  25641.0000  0.0  0.0   .3082E-04
25175.0074   .9122E+03   6335.0000  0.0  0.0   .1096E-02
25174.9440   .1125E+06   6336.0000  0.0  0.0   .8890E-05
25174.6905   .9596E+05   6335.0000  0.0  0.0   .1042E-04
25174.2467   .1318E+07  11536.0000  0.0  0.0   .7585E-06
25173.6128   .9595E+04  11537.0000  0.0  0.0   .1042E-03
25173.3593   .1479E+07  11537.0000  0.0  0.0   .6760E-06
25171.3311   .1002E+05  26487.0000  0.0  0.0   .9978E-04
25171.2677   .1023E+05  26485.0000  0.0  0.0   .9773E-04
25171.0142   .4645E+05   6815.0000  0.0  0.0   .2153E-04
25170.0636   .4425E+05   6815.0000  0.0  0.0   .2260E-04
25169.9369   .3220E+04  15757.0000  0.0  0.0   .3105E-03
25169.5567   .1352E+07  15757.0000  0.0  0.0   .7398E-06
25169.0497   .1309E+07  15758.0000  0.0  0.0   .7641E-06
25166.7055   .4558E+05  21682.0000  0.0  0.0   .2194E-04
25166.1353   .4444E+05  21683.0000  0.0  0.0   .2250E-04
25165.1217   .1655E+04  20978.0000  0.0  0.0   .6043E-03
25164.7417   .9588E+04  11546.0000  0.0  0.0   .1043E-03
25164.6783   .1317E+07  11546.0000  0.0  0.0   .7591E-06
25164.4883   .1819E+04  25597.0000  0.0  0.0   .5499E-03
25164.4883   .1478E+07  11546.0000  0.0  0.0   .6765E-06
25164.1716   .8255E+03  24753.0000  0.0  0.0   .1211E-02
25163.1582   .1856E+04  25597.0000  0.0  0.0   .5387E-03
25163.0949   .5208E+06  19364.0000  0.0  0.0   .1920E-05
25162.9682   .8427E+03  24753.0000  0.0  0.0   .1187E-02
25162.2715   .7510E+03  19364.0000  0.0  0.0   .1332E-02
25161.3849   .7238E+06  12929.0000  0.0  0.0   .1382E-05
25161.0050   .5077E+06  19365.0000  0.0  0.0   .1970E-05
25160.6251   .1001E+04  12929.0000  0.0  0.0   .9987E-03
25160.4984   .1001E+04  12930.0000  0.0  0.0   .9987E-03
25160.3085   .1689E+08   2161.0000  0.0  0.0   .5921E-07
25160.1818   .2550E+06   2161.0000  0.0  0.0   .3921E-05
25159.8019   .6975E+06  12930.0000  0.0  0.0   .1434E-05
25159.1687   .1689E+08   2162.0000  0.0  0.0   .5921E-07
25159.1054   .1654E+04  16596.0000  0.0  0.0   .6046E-03
25155.0539   .8422E+05  16784.0000  0.0  0.0   .1187E-04
25154.4210   .1295E+07  10113.0000  0.0  0.0   .7720E-06
25154.1678   .4823E+04  10113.0000  0.0  0.0   .2073E-03
25153.8514   .4460E+04  10114.0000  0.0  0.0   .2242E-03
25153.5983   .1477E+07  10114.0000  0.0  0.0   .6771E-06
25152.5857   .8041E+03  20513.0000  0.0  0.0   .1244E-02
25151.5100   .1154E+06  23108.0000  0.0  0.0   .8664E-05
25149.4853   .1128E+06  23110.0000  0.0  0.0   .8867E-05
25147.8405   .1514E+06   4200.0000  0.0  0.0   .6605E-05
25147.7772   .3797E+08   4200.0000  0.0  0.0   .2634E-07
25147.5874   .3796E+08   4200.0000  0.0  0.0   .2634E-07
25147.5874   .4866E+05   7384.0000  0.0  0.0   .2055E-04
25147.5874   .1604E+06   4200.0000  0.0  0.0   .6235E-05
25147.5242   .6399E+04  12874.0000  0.0  0.0   .1563E-03
25147.5242   .4647E+05   7384.0000  0.0  0.0   .2152E-04
25145.9429   .1799E+06  17312.0000  0.0  0.0   .5558E-05
25145.5001   .1754E+06  17312.0000  0.0  0.0   .5701E-05
25145.3737   .1469E+07  11958.0000  0.0  0.0   .6807E-06
25144.8045   .1019E+05  11959.0000  0.0  0.0   .9817E-04
25144.5515   .1641E+07  11959.0000  0.0  0.0   .6095E-06
25143.9823   .1268E+06   6752.0000  0.0  0.0   .7888E-05
25143.5397   .3784E+04   6752.0000  0.0  0.0   .2642E-03
25142.9706   .9976E+03   6763.0000  0.0  0.0   .1002E-02
25142.5912   .4456E+04  10125.0000  0.0  0.0   .2244E-03
25142.5912   .1132E+06   6763.0000  0.0  0.0   .8832E-05
25142.4015   .1294E+07  10125.0000  0.0  0.0   .7728E-06
25142.4015   .1503E+06   6753.0000  0.0  0.0   .6653E-05
25142.3382   .1476E+07  10125.0000  0.0  0.0   .6777E-06
25142.2750   .1327E+06   6763.0000  0.0  0.0   .7534E-05
25142.1485   .4819E+04  10125.0000  0.0  0.0   .2075E-03
25142.0221   .5558E+05   7882.0000  0.0  0.0   .1799E-04
25141.8324   .5558E+05   7882.0000  0.0  0.0   .1799E-04
25141.7692   .1652E+04  21001.0000  0.0  0.0   .6054E-03
25140.8208   .9975E+03  25640.0000  0.0  0.0   .1003E-02
25140.8208   .9770E+03  25641.0000  0.0  0.0   .1024E-02
25140.3783   .6455E+05   7882.0000  0.0  0.0   .1549E-04
25140.1886   .6455E+05   7882.0000  0.0  0.0   .1549E-04
25140.0622   .1267E+06   6756.0000  0.0  0.0   .7891E-05
25139.7461   .4807E+05   1252.0000  0.0  0.0   .2080E-04
25139.6196   .3783E+04   6756.0000  0.0  0.0   .2643E-03
25138.8611   .1503E+06   6757.0000  0.0  0.0   .6655E-05
25137.0912   .1861E+05  19334.0000  0.0  0.0   .5373E-04
25137.0280   .4215E+07  17776.0000  0.0  0.0   .2373E-06
25136.6488   .1591E+05   7887.0000  0.0  0.0   .6284E-04
25136.6488   .8256E+04  17776.0000  0.0  0.0   .1211E-03
25136.5224   .1591E+05   7887.0000  0.0  0.0   .6284E-04
25136.5224   .6603E+04  17776.0000  0.0  0.0   .1514E-03
25136.1432   .4214E+07  17776.0000  0.0  0.0   .2373E-06
25136.0800   .1913E+05  19334.0000  0.0  0.0   .5227E-04
25135.4480   .2107E+04  10395.0000  0.0  0.0   .4746E-03
25135.3216   .3489E+05  15953.0000  0.0  0.0   .2866E-04
25135.0057   .1293E+06   7887.0000  0.0  0.0   .7732E-05
25135.0057   .1018E+05  11969.0000  0.0  0.0   .9824E-04
25134.8793   .1293E+06   7887.0000  0.0  0.0   .7732E-05
25134.8793   .1468E+07  11969.0000  0.0  0.0   .6812E-06
25134.7529   .1639E+07  11969.0000  0.0  0.0   .6100E-06
25134.3106   .1537E+06   7958.0000  0.0  0.0   .6506E-05
25133.8682   .1537E+06   7959.0000  0.0  0.0   .6506E-05
25133.7419   .5870E+05  23910.0000  0.0  0.0   .1704E-04
25133.6155   .1342E+05  14176.0000  0.0  0.0   .7453E-04
25133.2364   .5750E+05  23910.0000  0.0  0.0   .1739E-04
25133.1732   .4089E+05   7958.0000  0.0  0.0   .2445E-04
25132.7309   .4089E+05   7959.0000  0.0  0.0   .2446E-04
25132.6046   .1326E+06   6773.0000  0.0  0.0   .7540E-05
25132.5414   .9968E+03   6773.0000  0.0  0.0   .1003E-02
25132.2255   .1131E+06   6773.0000  0.0  0.0   .8839E-05
25131.7200   .1865E+07  15999.0000  0.0  0.0   .5363E-06
25131.4042   .8252E+04  15999.0000  0.0  0.0   .1212E-03
25130.8988   .4859E+05   7401.0000  0.0  0.0   .2058E-04
25130.8988   .1939E+07  15999.0000  0.0  0.0   .5158E-06
25130.6461   .1609E+05   7962.0000  0.0  0.0   .6215E-04
25130.3302   .1609E+05   7962.0000  0.0  0.0   .6215E-04
25130.3302   .9989E+03  13571.0000  0.0  0.0   .1001E-02
25129.8880   .7473E+06  13571.0000  0.0  0.0   .1338E-05
25129.8249   .4640E+05   7402.0000  0.0  0.0   .2155E-04
25129.5722   .7220E+06  13571.0000  0.0  0.0   .1385E-05
25129.5090   .2336E+06   7962.0000  0.0  0.0   .4280E-05
25129.1932   .2336E+06   7962.0000  0.0  0.0   .4281E-05
25129.1301   .9988E+03  13571.0000  0.0  0.0   .1001E-02
25126.4143   .1650E+04  14355.0000  0.0  0.0   .6062E-03
25125.8460   .8024E+03  20540.0000  0.0  0.0   .1246E-02
25125.2777   .2474E+06   8059.0000  0.0  0.0   .4042E-05
25124.5831   .4890E+04  12020.0000  0.0  0.0   .2045E-03
25124.5831   .2474E+06   8060.0000  0.0  0.0   .4043E-05
25124.3937   .2988E+05   8059.0000  0.0  0.0   .3347E-04
25123.6360   .2987E+05   8060.0000  0.0  0.0   .3347E-04
25122.5627   .1480E+05   8062.0000  0.0  0.0   .6757E-04
25122.2471   .1344E+07  16383.0000  0.0  0.0   .7443E-06
25121.9314   .1480E+05   8063.0000  0.0  0.0   .6757E-04
25121.7421   .3208E+04  16384.0000  0.0  0.0   .3117E-03
25121.6158   .3313E+06   8062.0000  0.0  0.0   .3018E-05
25121.4264   .1433E+05  14152.0000  0.0  0.0   .6979E-04
25121.3002   .1387E+07  16384.0000  0.0  0.0   .7207E-06
25121.3002   .8399E+03  24795.0000  0.0  0.0   .1191E-02
25121.0477   .3313E+06   8063.0000  0.0  0.0   .3018E-05
25121.0477   .8227E+03  24796.0000  0.0  0.0   .1216E-02
25120.1009   .1850E+04  25640.0000  0.0  0.0   .5405E-03
25119.9746   .1812E+04  25641.0000  0.0  0.0   .5518E-03
25116.7561   .6593E+04  17796.0000  0.0  0.0   .1517E-03
25116.5667   .1473E+07  10595.0000  0.0  0.0   .6791E-06
25116.3774   .4208E+07  17796.0000  0.0  0.0   .2377E-06
25116.3143   .5189E+04  10595.0000  0.0  0.0   .1927E-03
25115.9989   .4809E+04  10595.0000  0.0  0.0   .2079E-03
25115.9989   .2577E+05  24013.0000  0.0  0.0   .3881E-04
25115.8096   .4208E+07  17797.0000  0.0  0.0   .2377E-06
25115.7465   .1671E+07  10595.0000  0.0  0.0   .5984E-06
25115.4310   .8242E+04  17797.0000  0.0  0.0   .1213E-03
25114.5477   .2636E+05  24014.0000  0.0  0.0   .3793E-04
25114.4215   .3404E+06   8185.0000  0.0  0.0   .2938E-05
25114.2953   .1795E+06  17344.0000  0.0  0.0   .5572E-05
25113.6645   .1936E+07  16017.0000  0.0  0.0   .5165E-06
25113.6645   .2333E+05   8185.0000  0.0  0.0   .4286E-04
25113.3490   .3404E+06   8186.0000  0.0  0.0   .2938E-05
25113.2859   .1862E+07  16017.0000  0.0  0.0   .5371E-06
25112.9705   .8240E+04  16017.0000  0.0  0.0   .1214E-03
25112.5920   .2333E+05   8186.0000  0.0  0.0   .4286E-04
25112.2766   .1633E+07  12400.0000  0.0  0.0   .6125E-06
25112.2136   .1749E+06  17345.0000  0.0  0.0   .5716E-05
25112.2136   .1352E+05   8187.0000  0.0  0.0   .7398E-04
25111.8351   .2269E+05  24013.0000  0.0  0.0   .4407E-04
25111.7089   .1081E+05  12401.0000  0.0  0.0   .9249E-04
25111.4566   .4275E+06   8187.0000  0.0  0.0   .2339E-05
25111.4566   .1823E+07  12401.0000  0.0  0.0   .5484E-06
25111.2674   .1352E+05   8188.0000  0.0  0.0   .7398E-04
25110.9520   .1648E+04  14370.0000  0.0  0.0   .6069E-03
25110.6998   .1002E+05   5704.0000  0.0  0.0   .9980E-04
25110.5736   .4274E+06   8188.0000  0.0  0.0   .2340E-05
25110.4475   .2322E+05  24014.0000  0.0  0.0   .4307E-04
25109.3123   .1255E+05  24808.0000  0.0  0.0   .7965E-04
25107.9880   .1018E+05  23221.0000  0.0  0.0   .9823E-04
25107.8619   .1282E+05  24808.0000  0.0  0.0   .7803E-04
25107.6096   .7460E+06  13594.0000  0.0  0.0   .1340E-05
25107.6096   .1819E+05  25597.0000  0.0  0.0   .5499E-04
25107.5466   .5090E+05   7989.0000  0.0  0.0   .1964E-04
25107.4205   .4872E+05   7989.0000  0.0  0.0   .2052E-04
25106.8530   .9971E+03  13594.0000  0.0  0.0   .1003E-02
25106.7269   .9971E+03  13595.0000  0.0  0.0   .1003E-02
25106.7269   .1044E+05  23222.0000  0.0  0.0   .9578E-04
25106.4116   .1909E+05  19364.0000  0.0  0.0   .5239E-04
25106.2855   .1857E+05  25597.0000  0.0  0.0   .5386E-04
25105.9703   .7206E+06  13595.0000  0.0  0.0   .1388E-05
25105.7181   .1856E+05  19365.0000  0.0  0.0   .5387E-04
25104.2051   .2521E+05  21397.0000  0.0  0.0   .3966E-04
25104.0790   .1530E+06   7033.0000  0.0  0.0   .6537E-05
25103.7638   .4804E+04  10608.0000  0.0  0.0   .2082E-03
25103.7008   .3586E+04   7033.0000  0.0  0.0   .2789E-03
25103.7008   .2458E+05  21396.0000  0.0  0.0   .4068E-04
25103.5117   .1670E+07  10608.0000  0.0  0.0   .5989E-06
25103.5117   .1471E+07  10608.0000  0.0  0.0   .6798E-06
25103.2596   .5183E+04  10608.0000  0.0  0.0   .1929E-03
25102.6923   .1801E+06   7034.0000  0.0  0.0   .5552E-05
25101.5578   .1646E+04  17170.0000  0.0  0.0   .6074E-03
25101.4947   .4341E+06   8335.0000  0.0  0.0   .2304E-05
25100.9905   .1080E+05  12412.0000  0.0  0.0   .9257E-04
25100.8645   .1984E+05   8335.0000  0.0  0.0   .5041E-04
25100.8015   .1631E+07  12412.0000  0.0  0.0   .6130E-06
25100.6754   .1822E+07  12412.0000  0.0  0.0   .5489E-06
25100.5494   .8213E+03  24753.0000  0.0  0.0   .1218E-02
25100.3603   .1093E+04   7222.0000  0.0  0.0   .9152E-03
25099.9822   .4340E+06   8337.0000  0.0  0.0   .2304E-05
25099.9192   .1332E+06   7222.0000  0.0  0.0   .7508E-05
25099.7932   .3202E+04  16406.0000  0.0  0.0   .3123E-03
25099.7302   .1561E+06   7222.0000  0.0  0.0   .6405E-05
25099.6671   .1220E+05   8337.0000  0.0  0.0   .8194E-04
25099.4781   .1529E+06   7038.0000  0.0  0.0   .6539E-05
25099.3521   .1984E+05   8337.0000  0.0  0.0   .5041E-04
25099.3521   .1385E+07  16406.0000  0.0  0.0   .7220E-06
25099.3521   .8384E+03  24753.0000  0.0  0.0   .1193E-02
25099.0370   .3585E+04   7038.0000  0.0  0.0   .2790E-03
25099.0370   .5266E+06   8337.0000  0.0  0.0   .1899E-05
25098.8480   .1341E+07  16407.0000  0.0  0.0   .7457E-06
25098.4069   .1801E+06   7039.0000  0.0  0.0   .5553E-05
25098.3439   .1220E+05   8338.0000  0.0  0.0   .8195E-04
25097.7138   .5265E+06   8338.0000  0.0  0.0   .1899E-05
25095.1938   .2920E+07  19665.0000  0.0  0.0   .3425E-06
25094.6269   .6581E+04  19666.0000  0.0  0.0   .1519E-03
25094.1230   .3008E+07  19666.0000  0.0  0.0   .3324E-06
25093.4301   .5851E+05  23950.0000  0.0  0.0   .1709E-04
25092.3594   .1680E+08   2517.0000  0.0  0.0   .5953E-07
25092.1705   .2319E+06   2517.0000  0.0  0.0   .4313E-05
25091.4148   .5731E+05  23952.0000  0.0  0.0   .1745E-04
25091.2888   .1680E+08   2518.0000  0.0  0.0   .5953E-07
25090.1554   .9912E+04  22433.0000  0.0  0.0   .1009E-03
25089.7776   .5083E+05   8007.0000  0.0  0.0   .1967E-04
25089.0220   .1560E+06   7233.0000  0.0  0.0   .6410E-05
25088.8961   .1016E+05  22434.0000  0.0  0.0   .9838E-04
25088.8961   .1092E+04   7233.0000  0.0  0.0   .9160E-03
25088.6442   .5298E+06  20099.0000  0.0  0.0   .1888E-05
25088.5813   .4865E+05   8008.0000  0.0  0.0   .2055E-04
25088.5183   .1331E+06   7233.0000  0.0  0.0   .7515E-05
25088.2665   .5165E+06  20099.0000  0.0  0.0   .1936E-05
25087.8258   .7466E+03  20099.0000  0.0  0.0   .1339E-02
25086.4408   .5309E+06   8510.0000  0.0  0.0   .1884E-05
25085.8743   .1710E+05   8510.0000  0.0  0.0   .5848E-04
25084.8672   .1172E+05   8511.0000  0.0  0.0   .8532E-04
25084.4895   .5308E+06   8512.0000  0.0  0.0   .1884E-05
25084.3007   .6309E+06   8511.0000  0.0  0.0   .1585E-05
25083.9231   .1710E+05   8512.0000  0.0  0.0   .5849E-04
25083.1049   .1172E+05   8513.0000  0.0  0.0   .8533E-04
25082.6015   .1644E+04  17189.0000  0.0  0.0   .6083E-03
25082.6015   .6308E+06   8513.0000  0.0  0.0   .1585E-05
25082.0981   .4017E+04  16577.0000  0.0  0.0   .2490E-03
25080.2104   .4323E+04  16578.0000  0.0  0.0   .2313E-03
25079.8958   .2629E+05  24048.0000  0.0  0.0   .3804E-04
25079.4554   .2569E+05  24050.0000  0.0  0.0   .3892E-04
25077.3165   .4443E+03  16615.0000  0.0  0.0   .2251E-02
25075.7440   .2316E+05  24048.0000  0.0  0.0   .4319E-04
25075.7440   .1666E+07  11096.0000  0.0  0.0   .6003E-06
25075.4924   .4793E+04  11096.0000  0.0  0.0   .2086E-03
25075.2408   .2263E+05  24050.0000  0.0  0.0   .4419E-04
25075.2408   .3996E+04  11097.0000  0.0  0.0   .2502E-03
25074.9892   .1744E+07  11097.0000  0.0  0.0   .5733E-06
25074.6748   .1810E+07  12862.0000  0.0  0.0   .5526E-06
25074.1717   .9854E+04  12862.0000  0.0  0.0   .1015E-03
25073.9201   .1839E+06  18115.0000  0.0  0.0   .5438E-05
25073.8572   .2021E+07  12862.0000  0.0  0.0   .4948E-06
